# 3D point list with one line of data per point:
#   POINT3D_ID, X, Y, Z, R, G, B, ERROR, TRACK[] as (IMAGE_ID, POINT2D_IDX)
# Number of points: 341, mean track length: 5.741876310272537
13546 -2.6869590897067308 1.9785460633194967 15.170150105502474 141 123 101 0.31468942660739591 12 636 15 750 13 3369 4 5620 6 10864
13547 -4.4350257749429947 1.7380143724577697 17.208269888604718 70 55 26 1.0185714136036599 12 631 15 751 10 1448 9 1496 3 1555 6 4111
13549 0.39241152379687116 0.70962560637297445 10.222848719058478 100 91 82 1.844180603606127 12 634 15 754 16 1481 13 3402
13550 0.4078139367817224 -0.78163111644978445 9.3564495352213157 18 0 18 1.290329468365687 12 354 15 762 14 1445 9 4294 3 10766 13 3559 4 4578 6 11020
13551 -4.5377450730293383 1.5656866247338694 17.122099727468466 104 91 51 0.72851583900417272 12 1198 15 808 16 855 14 3490 13 3376 10 3254 9 4014 3 4523 7 10826 1 10397 2 10156 5 10953
13552 -1.6589711106750207 1.1649505103215358 10.605800759051791 126 109 89 1.8451124063182611 12 441 15 819
13553 -3.0880684746932592 1.9756205021349511 14.03514530653565 142 122 97 0.49633215291428895 12 811 15 822 16 3227 14 3985
13554 -0.086634150096214516 1.9866458195168097 11.64879701409866 70 60 48 0.80730982352869274 12 311 15 831 16 1507 13 5103
13555 -0.085274158252685417 2.0001859819688521 11.69422635120641 70 60 48 0.69483621116422556 12 313 15 898 16 1670
13556 -2.4784659941393037 1.9225371835160148 12.265445422243554 117 104 85 1.197700042096038 12 639 15 909 16 1689 14 5409
13557 -2.0475006245850165 1.8720828999904622 13.576529890268795 45 30 11 0.1644182590816885 12 850 13 1773
13558 -2.3407849377832863 1.9203648864422267 14.416109862075565 60 52 42 0.28527039821921552 12 439 15 923 16 956
13560 -0.84186407078491632 1.8574265383982198 17.975157925186465 136 123 106 1.0453433161678365 24 322 15 947 14 1045 13 5235 12 2057
13561 -3.5434605699139765 1.8830233192006209 18.476168469612848 151 134 104 0.71222445804139189 12 1196 15 950 16 2180 14 3341 13 3174 24 323
13563 -4.5377450730293383 1.5656866247338694 17.122099727468466 104 91 51 0.72851583900417272 12 1083 15 960 16 981 14 3862 13 3188 10 3033 9 5256 3 5963 7 7611 1 8370 2 8162 5 8200
13572 0.54644848989030936 -0.47664107654650922 9.5013910793720378 41 21 13 1.9429821570630188 12 397 15 1052 16 2554 14 2084 13 5756 10 8027 9 8024 4 8842 4 8860 1 6326 2 8767 6 7510 5 7625
13574 0.49177145371774966 -0.65128611386651547 9.4318440565789796 197 153 113 1.3603073667819878 12 460 15 1070 16 1970 14 2067 13 2703 10 2575 9 2590 3 4084 4 6244 7 6614 1 6376 2 6279
13575 0.4178321868508697 -0.66567226880037045 9.4160472336383609 41 27 7 1.3054153028132887 12 568 15 1074 14 2064 9 2597 3 2158 16 419 1 2822 7 2166
13577 0.41452590382359961 -0.78795706954880107 9.3986440904485455 18 0 18 1.5513962490462774 12 378 15 1096 16 1941 13 2737 10 5858 9 5881 3 11084 14 2043 4 6297 2 8883 6 7396
13596 -4.6682464520140243 1.4867900391834039 17.398237854700668 102 96 64 0.33895803066380087 12 898 15 1246 16 2176 14 2312 13 3205 10 5220 9 5274 3 5979 4 7489 7 4599 1 7767 2 5795 8 10709 6 8061 5 8185
13598 -2.7400377231214281 1.5307478671265193 21.656637207096384 177 169 158 1.2000579314154383 12 1370 18 323 22 335 15 1257 14 2511 10 5271 9 5305 3 6007
13607 -2.8112773675301512 1.5810611013488973 22.164895016018281 177 169 158 0.83254898969702307 12 2003 18 316 22 504 15 1323 14 3508 10 4047 9 4032
13610 -3.1479856215486195 1.7358159058127716 21.208689900706204 141 126 101 0.500317256525869 11 849 15 1340 16 3064
13614 -4.8390764434446556 0.23553156080207355 17.189824174378774 20 12 0 0.21134505670674875 12 770 15 1383 14 5845
13615 -5.5730688147323475 0.94233254415752588 25.863539920229496 53 42 5 0.3490111252662792 12 774 15 1394 16 1447 14 1522 13 2454 10 3307 3 6114
13616 -5.0195985503964549 0.73142335081289622 17.440282600398735 8 1 0 0.11164570497353915 12 780 15 1397 16 1451
13617 -5.0195985503964549 0.73142335081289622 17.440282600398735 8 1 0 0.11164570497353915 12 781 15 1398 16 1452
13618 -4.5086919601263862 1.1021657301878756 19.128774259309704 111 92 50 0.32996034724724638 12 1361 15 1412 16 3995
13619 -4.7813598343416048 1.0607733703623172 17.43929856313656 10 5 0 1.1529041290720909 12 920 15 1415 14 3524 3 10484
13620 -4.8350231769837482 1.1581228858581645 17.329068563198142 27 21 0 0.52164369686524792 12 1220 15 1425 16 3267 14 4322 10 4058 9 7048
13622 -2.8469836668092428 1.79177292725779 20.496594628972669 92 83 68 0.93078824095794122 12 799 22 254 15 1430 16 1478 14 1552 13 3200 10 3258 9 5246 3 3614 4 5707 2 8154 8 8054 6 8090 5 10952
13623 -1.3071184501612374 1.7998587488838718 19.458504847274646 115 100 79 1.2209907066871926 24 449 15 1432 10 4019
13626 -4.8147017951892472 0.40429141541248914 17.226084093620916 111 102 61 0.44322369144050194 12 1956 15 1504 16 2376 14 5808 10 5439 9 5477 3 8646 4 7254 1 8623 8 7785 6 7824
13627 -0.99191990116333639 1.9899316814667438 11.028258532956892 90 78 64 0.68948230815580047 12 1439 15 1523 14 7280 13 7814 16 2908
13628 -1.4745658176909311 1.9914933656721006 11.082386147689636 112 97 78 0.63885080243090031 12 819 15 1570 16 2911 13 7811
13629 0.017419786691415709 2.0076237160797645 11.719374219774078 76 66 54 0.74682623820546878 12 471 15 1576 16 4768
13630 -0.24081148823541754 1.9956083298355523 11.793793455978429 103 94 82 0.78493034954776064 12 326 15 1579 16 1506 14 3447 13 4079
13631 -2.4986931022677878 1.9260777629578574 11.452970528796753 166 151 132 1.6820318367127804 12 472 15 1584 16 942 13 3041
13633 -2.9339553401754697 2.0002843364241656 13.115196883683481 154 140 120 1.3401998048217809 12 317 15 1600 16 2947
13634 -3.4547025397263678 2.003768408709528 13.668785776923105 138 124 98 0.74432472162047802 12 482 15 1603 16 1696 14 3905 13 3366
13635 0.49693206330112777 1.14450912399089 9.8381890046087968 67 64 65 1.8516797659797171 12 1463 15 1606 9 3080
13636 -0.21926156422592402 1.9541997584826383 14.232119127287227 61 49 35 0.808495158520253 12 810 15 1608 14 3282 13 1776 7 7721
13637 -3.2309036983172956 1.9853139090820093 14.885252566050214 121 104 74 0.60646494179160315 12 806 15 1614 16 2974 14 3288 13 5161 9 3986
13638 -4.1840198062722704 1.9247552974061957 16.169568847197176 84 65 35 0.6896421024457976 12 2083 15 1629 16 2222 13 5192 10 6723 3 7441
13639 -4.3033801004122036 1.9119859509117714 16.09762836671603 49 35 1 0.56961582101379937 12 1791 15 1630 16 2999 13 5193 10 5124 9 5190 3 5903 4 7574 7 7691 1 5831 5 8258
13640 -4.1593226545116995 1.9580494728838218 16.664500557621146 110 93 63 1.4428861358162057 12 684 15 1639 14 5488 13 5197 10 2991 9 6785 3 5904
13648 -4.2914841752253672 1.8541171370193623 16.40689719722943 42 28 0 0.46199714619277843 12 1195 15 1702 14 3313 13 3158 10 2998 9 3064 3 5907
13655 -2.584890190801842 1.8263330137328408 16.764964284268199 132 119 101 0.49344078486195964 12 1401 15 1740 16 3234 14 4281 13 4110
13659 -4.2985170818287894 1.8362086442670835 16.799142808482543 44 24 1 0.6678956179541079 12 884 15 1773 16 2032 14 3325 13 5215 10 5151 3 5917
13661 -4.3455213926159351 1.8897297606937662 17.368761573372979 67 47 20 1.456656057983579 12 2050 15 1781 16 3017 13 5213 10 5147 9 5208 3 5916 4 7098 14 9462 1 5846
13663 -2.7971683826074623 1.8479273578571296 17.31679593357801 122 105 85 0.46960748995982904 12 888 15 1828 16 3016 14 5510 13 7629
13666 0.44917449861193143 -0.77148293889834874 9.3516458126241897 225 186 162 1.7339396143144001 12 680 15 1863 16 2642 13 5869 10 8210 9 8174 3 6561 14 6233 4 8994 2 8872 8 7364
13669 -4.353525565817292 1.7114951858418113 16.306319926599727 26 10 0 0.50602318662843759 12 887 15 1873 16 3019 14 3334 13 3171 10 5162 9 5218 3 5928 4 7541 7 7653 1 8338 2 8126 8 8074 6 8116 5 8230
13673 0.51458047673522667 -0.56495845494492491 9.6140596858357625 63 43 30 1.7798037039368928 12 1025 15 1908 16 2577 14 6148 13 6865 10 8085
13675 -4.4676834304865025 1.589724896941713 16.357262676535981 134 124 64 0.36217464350630035 12 2054 15 1921 16 1397 14 3419 13 3180 10 5182 9 5237 3 5946 4 7521 7 6096 1 8356 2 8144 8 8053 6 8098 5 8207
13678 -4.5261498479493021 1.6196907195233241 16.926258071537042 44 29 0 0.49314079632064767 12 2051 15 1980 16 3032 14 3451 13 5249 10 5185 9 5241 3 7387 4 7518 7 7625
13679 -4.8166540636055455 0.22915557797872863 17.116054574108198 20 12 0 0.59027228643342489 12 956 15 1994 14 4433 16 2094 13 2507 9 1438 3 6220 7 9090 4 5957 1 6113 2 6015 8 6128 6 6151 5 2714
13681 -4.7437734086689343 0.37753929401933151 17.316676598698951 131 122 74 0.24144863931470986 12 951 15 2000 14 2316 10 2214 9 5484 3 6193 1 6082
13682 -5.5728435968187693 0.94328262317874756 25.86506262224632 53 42 5 0.36527182739947067 12 1203 15 2011 16 2116 14 2196 13 3427 10 3133 9 2375 3 4598
13683 -5.0195985503964549 0.73142335081289622 17.440282600398735 8 1 0 0.11164570497353915 12 936 15 2018 16 2124
13684 -4.5311712525772858 0.81368781064087192 18.395496466920573 99 85 40 0.4527364452848483 12 1355 15 2019 13 4175
13685 -4.9758604269496596 0.79808188396739999 17.26281978970918 101 99 61 0.58937714475283631 12 930 15 2023 16 3136 14 5707 13 5383 10 5345 9 7553 4 7355 7 8319 1 7743 2 8308 6 7983
13687 -4.7461695719427155 0.87115451878938333 17.468175358977362 24 16 0 0.40004760988582161 12 1983 15 2031 16 2135 14 2557 13 2215 10 3107 3 6083 4 5820 7 6216 1 6002 2 8294 8 7909 6 6046 5 8083
13689 0.30220905773478773 0.31965050052957783 9.7306096402236388 81 78 73 1.8213729305346884 12 916 15 2037 14 2587
13690 -4.9241829364763881 1.3362262706165482 21.52925720300696 24 10 0 0.42176833166950256 12 789 15 2043 16 2202 14 4331
13691 -4.8775389648170595 1.1700811329000014 17.451146337287401 27 21 0 0.42364954794179654 12 1316 15 2062 16 3086
13693 -2.9620499087634817 1.7109774682085557 22.04915934286343 83 74 57 0.46785055014452098 12 2009 18 319 22 506 15 2074 16 3068 14 2492 13 3221 10 5248 9 5288 3 5985 4 3304 8 4522 6 4543
13694 -4.8739932177892635 1.3715969731194086 17.20850805292562 176 170 111 0.66781503688042931 12 904 15 2078 16 990 14 859 13 854 10 1437 9 1483 3 1546 4 1439 7 1498 1 1342 2 1480 8 1498 6 3679 5 3690
13696 -4.6875368475012529 0.32778945201669757 19.048991496640831 43 29 1 0.26706764198087651 12 1338 15 2092 16 2400 14 5832 13 7293
13699 -2.1034406347858909 1.9297492521559951 10.983430714202548 170 155 134 0.29225300842216639 12 1490 15 2179 16 3893 14 5373
13701 0.44852874725119912 1.9450281971340051 11.331035624964223 10 3 0 0.96329025003523649 12 821 15 2240 16 4752 14 5371 13 5101
13702 -4.7711638490301214 0.52077159355346325 17.634290322775694 67 61 25 0.29270123959156169 12 1962 15 2253 16 5145 14 4400 13 5452 10 7596 7 8999 2 10273
13703 -4.6853306389823191 0.49529822753387559 17.818483524388554 14 5 0 0.27651730262686769 12 3018 15 2263 16 3311 14 4407 10 9396 9 5457 3 10539
13704 -4.9333894434779042 0.32315159747299183 17.063587642687459 127 118 73 0.35328740626085514 12 1344 15 2278 16 3326 14 5828 13 5490 9 7704 3 9600 10 5459 4 7219 7 10962 2 4499 5 7943 6 10842
13706 -4.8546641201097813 0.14823031736706638 17.184610633438552 45 37 2 0.27448110744244453 12 1473 15 2317 16 5230 14 5865 10 7732 9 7754
13709 -5.0298400181767375 -0.15331299986137542 18.537944612808111 47 34 1 0.28752464065314787 12 1914 15 2363 16 2455 14 5942
13710 -4.8746727606929658 -0.18016032830783332 18.523275450378549 124 116 67 0.13417203194988578 12 2244 15 2372 16 5326 14 8250
13711 -4.9015908594588531 -0.21768122833227718 18.013072114165361 140 129 75 0.42244716359285517 12 1906 15 2375 16 2468 14 3946 13 5606 10 5585 9 4166 3 8855 7 9192 1 8769 2 6119 8 7622 6 7664 5 7808
13712 -2.2749889462673529 1.9426298720972843 11.665567851549994 139 119 94 0.67465286955284343 12 832 15 2384 16 4791
13713 -4.9117449654588929 -0.32526851788969657 18.25292125216432 138 123 68 0.4077577522492794 12 1893 15 2387 16 3731 14 5979 10 5603 8 7661
13714 0.39492719114072589 -0.25150972250485082 9.5685973867341012 150 148 151 1.3350720520283568 12 982 15 2390 16 5361 14 6018 13 5677 10 7917 3 8937 7 9289 1 8817 6 7593
13716 -6.4982897429899804 -0.69143691059957013 28.572418954990962 75 63 13 1.02900053413293 12 1466 15 2407 16 2502 14 6009 13 2589 10 2467 3 6345 1 6229 7 2843 8 2772 8 6246
13722 0.47877458380127919 -0.56694872154648035 9.5983660727452271 152 143 138 1.6184708071429075 12 1026 15 2497 16 5517 14 6149 13 9367 9 8080
13726 0.53201403761738864 -0.63056534958030708 9.5173621124218055 98 55 10 1.6974195340269578 12 1043 15 2526 14 4571 16 2609 13 9723
13728 -2.3758348409460974 1.9624768945991113 11.947139891292755 153 141 118 0.63253132327392192 12 835 15 2563 16 3697
13741 0.52666239013893279 1.8400163500423203 11.889822539564214 140 134 136 0.875066601112094 12 2136 15 2660
13754 -2.4117655895825867 1.9420710887891097 12.281925821752404 146 135 115 0.71719760104845454 12 837 15 2769 14 4252
13755 -2.211455306864258 1.8880101256811765 12.334579038111572 134 123 104 0.63184725296004396 12 1524 15 2773 14 5418
13756 -1.9922835098073797 1.9133384142182721 13.223385188461368 81 66 43 0.65521265880389745 12 847 15 2783 16 2951 14 7207
13757 -3.0854513058518451 1.9794089347206896 13.740441856681539 165 147 125 0.15331011984730988 12 1534 15 2793 16 3224
13758 -2.1030399682739978 1.9303254924309226 10.984370786484734 170 155 134 0.2074516273572391 12 1421 15 2795 14 4241
13759 -3.2107918881913475 2.0172033997999601 14.686297370856296 159 142 113 0.28057597825152286 12 855 15 2804 14 4261
13760 -1.9484547220865234 1.797187589630634 13.868069368996236 91 76 55 1.9401479288276724 12 857 15 2808 14 7187 13 7694
13761 -4.3960279942112308 1.9554931709677439 16.146768390781482 69 54 11 0.44306701526106868 12 1779 15 2837 16 4890 13 7677
13762 -4.4228239046136792 1.8001574439696233 15.673665743115425 53 41 0 0.72105456064693951 12 1807 15 2844 16 3695 14 5496 13 7656 10 7477 9 6773
13764 -4.3798042350291206 1.7523719112741023 15.788173633610292 39 25 0 0.49829523586776586 12 1863 15 2850 16 3009 14 5507 13 5210 10 6702 9 6765 4 7558
13766 -5.5168419145288468 0.93764410622193528 25.059098535795215 118 106 66 0.67997746641671786 12 3013 15 2855 14 4382
13767 -4.3483139199905398 1.6768935148370021 15.759571479386191 157 149 68 0.85841629178562673 12 882 15 2857 14 3333 16 2101 13 3170 10 3247 9 5216 4 7088 7 6079 1 4495 2 5753
13768 -4.3667184065011622 1.7873218728984899 16.912243842603477 122 108 63 0.30440861937983443 12 2053 15 2860 16 3021 14 7549
13769 -4.3842474728032883 1.64373646379314 16.419650794521889 147 139 78 0.41889364687589747 12 2058 15 2872 16 3693 14 5533 13 9940 10 6687 3 7398 1 8345 2 9105 6 8107
13770 -4.449065552656962 1.6621830915851359 17.425529474488592 147 136 74 0.40088743618922318 12 2045 15 2879 16 3034 14 5541 13 5250 10 5184 9 6734 3 7388 4 7522 7 7632 2 8141 6 8100
13771 -4.6166046438474 1.5884916568262319 16.858141190649221 65 53 14 0.64524550886917997 12 2048 15 2880 16 4941 13 7584
13773 -4.1306826408505133 1.6421841206707359 18.7047410887761 157 136 109 1.4075274885804616 11 2187 15 2901 9 5263 3 7372 4 5710 7 7614 1 5887 2 8158 8 8042 6 8085 10 5203
13774 -0.31056475985207116 1.6949434461974382 20.611853783178301 130 119 101 1.1421528247004522 12 2018 24 457 15 2908
13775 -4.6287190900714483 1.4198787318678221 17.426471315963386 30 19 0 0.93651199002697927 12 2788 15 2913 16 8653 14 5584 13 5286 10 5237 9 5293 3 7336 7 7583 8 8007
13776 -4.8185384103494506 1.4060888590513365 17.295808226066296 10 0 0 0.49587485665261216 12 2026 15 2914 16 3058 14 3934 13 5283 10 5238 9 5290 3 7339 4 7476
13777 -4.570069778379179 1.3923946523777218 17.444779839220377 124 117 71 0.57319765198309625 12 2022 15 2916 16 3061 14 2491 10 5242 9 5298 3 5993 4 10043 7 6133 1 5919 2 8190 8 8009 6 8049 5 8171
13778 -4.7954013112195577 1.1828790871899906 16.692504525422855 117 111 76 0.41774876367186359 12 1375 15 2927 16 3076 14 2519 13 5309 10 5280 9 5317 3 6017 4 5753 7 6159 1 8444 8 7974 5 8140
13779 -4.644696296741964 1.2580255627397467 18.093608139384216 26 9 0 0.38660660307610445 12 1452 15 2934 16 5016
13780 -4.7895018352513086 1.3991781892134196 21.178669124081846 98 86 50 0.58754028037666173 11 1505 15 2943 16 5032 12 4360 13 7486
13781 -4.642905445971941 1.1853202281475399 18.596625134802292 16 5 1 0.76686104873465855 12 2000 15 2947 16 5033 14 7028 13 7481 10 6582
13782 -4.6573530573792983 1.1433150685249047 18.16205691955523 20 7 0 0.36311993277875332 12 2832 15 2948 16 3095
13783 -4.8212736531138223 1.1036504704987273 17.793129424824716 95 89 55 0.26913956981372067 12 2990 15 2951 16 5039 14 7019 13 7473 3 8489
13784 -4.5741717076351858 1.0661605945904733 18.213681503505452 22 10 0 0.07353795300797572 12 1994 15 2958 16 3684
13785 -4.76982397437322 1.080173047317508 18.228740005207317 11 0 0 0.37077379497388419 12 1995 15 2959 16 5047 14 5653 13 5342 10 5311 9 9294
13786 -4.7924577533328607 0.97092569312657639 16.853129192995908 18 13 0 0.50612061090916416 12 1997 15 2960 16 3280 13 4151 9 7500 4 10275 7 10887
13787 -0.35228559881564397 1.4230755537222473 24.019232160366105 36 35 31 1.4538480929287263 11 1512 15 2963 14 5649 16 3115 9 3739 3 6028 4 3989
13789 -4.6596717410383537 0.92612123916848821 17.605570751889129 17 8 1 0.35182449561072482 12 1360 15 2973 14 5675 13 5358 10 7494 9 8777
13793 -4.6010458662072677 0.81728280436825018 17.727225678312038 43 32 0 0.65056241887635413 12 1980 15 2988 16 3748 14 5703 13 5382 10 5342 9 8759 3 8543 4 4388 7 8299 1 8517 8 7894 6 7938 5 11012
13794 -4.8851920491563847 0.76693742371569673 17.567819046936439 14 2 0 0.44155323681463521 12 2871 15 3052 16 3142 14 2577 13 5394 10 3122 9 5398 3 6109 4 5842 7 6234 2 5913 1 3701 8 6046 6 10648
13796 -2.9974341173362764 1.9052003795411061 17.362518546707182 126 110 89 0.4801238317420834 12 885 15 3069 16 2003 14 3479 13 5214
13797 -4.3667184065011622 1.7873218728984899 16.912243842603477 122 108 63 0.30440861937983443 12 1397 15 3070 16 3237 14 9454
13798 -0.21027940022456773 1.8640195085550741 18.340396863310364 93 76 56 0.98413365144387033 12 1393 15 3071 13 9407
13800 -4.8164672107148006 1.1041161175082956 17.781641297751825 95 89 55 0.39945164582756726 12 2989 15 3098
13801 -4.8247450951988951 1.1049605965396523 17.804522856369058 95 89 55 0.2658700734099505 12 2835 15 3099 16 3986 14 9713 13 9454
13803 -4.7851411703075684 0.96712195219463171 16.830033834474641 18 13 0 0.46375731824088456 12 1368 15 3105 16 3107 14 5657 13 5346 10 5316 3 8504 4 7394 7 7495 2 8271 8 7935 6 7965 6 10753 5 8104
13804 -4.7789224788243851 0.96835735688464908 17.443696186217711 108 105 62 0.50448177478428469 12 2845 15 3110 13 4156 10 4074 9 4057
13806 -4.6651949963742672 0.92746186741941838 17.623353177959075 17 8 1 0.3000704109222877 12 1987 15 3115 14 4350 13 4159 10 9351 9 7058 4 7386 3 8519 8 7921
13807 -4.6071535938981079 0.92941804179624876 17.941859526666299 40 29 0 0.49906103799476381 12 1359 15 3120 13 4160 10 4077 9 9306 3 8525 4 4376 7 7477 2 10225 8 10767 6 11374
13808 -5.1821656689204749 1.2832617902432046 24.134237924472913 148 137 87 0.41086447984263214 24 1381 15 3121 10 4073 9 5362 3 6054 4 5788 7 6186 1 8470 2 5867 8 7950 6 7986 5 8114
13810 -4.6717805423988317 0.49307814853212062 17.775435628380983 14 5 0 0.26904454438144781 12 3017 15 3147 14 4406 3 8625
13811 -4.6783390654326071 0.49486006071819871 17.797016139637048 14 5 0 0.2544252961521874 12 2910 15 3148 16 2201 14 5787 13 7345 10 7608 3 10540
13812 -4.9333894434779042 0.32315159747299177 17.063587642687459 127 118 73 0.35328740626085497 12 1343 15 3153 16 3325 14 4423 13 4213 10 4134 9 9382 3 8170 4 10340 7 9062 2 4498 6 10841 5 11077
13813 -4.9408704053804389 0.32366237570652484 17.085892153360788 127 118 73 0.4808855915840759 12 1947 15 3154 9 9381 3 8158
13816 -4.8567207984506906 0.14751586499262903 17.18974481043761 45 37 2 0.34369135452928773 12 1219 15 3169 16 4067 14 4443 13 4241
13817 -5.0900101855702911 -0.25681254178183271 20.160574859071648 62 56 8 0.51907243078081444 12 1320 15 3189 16 2471 14 5959
13829 -1.2414078281594836 -1.4630380342664533 7.4707982407369977 123 170 134 0.48711475208170962 12 166 15 3326
13854 2.7890251177574039 -2.5554497290302378 22.028533739761684 4 10 0 1.7969826530840249 11 1208 15 3482 14 4640
13855 0.42767093780107407 -0.7461476240040803 9.4513248689867009 140 119 87 1.3363446972016477 12 730 15 3484 16 4220
13856 -4.6273373677154606 0.75200316777948684 17.484983389119783 51 38 1 0.41692501847982277 12 2870 15 3490 16 5091 14 6954 13 7406 10 7539 9 7562 7 7988
13857 -4.6218815273127349 0.88931014667101649 17.680317686541805 118 110 74 0.30338842380436271 12 1984 15 3493 16 5073 14 5690 13 5366 10 5336
13859 0.42767093780107407 -0.7461476240040803 9.4513248689867009 140 119 87 1.3363446972016477 12 1065 15 3504 16 5603
13864 -2.6578257236959466 1.9656918749588337 12.458931185895615 109 96 77 0.20990054987043724 12 1521 15 3667 16 4817 14 7224 13 7753
13865 -1.6886784104542265 1.9401080782879792 13.879787354385915 132 119 102 0.65053684697136638 12 485 15 3680 16 2963 14 4256 13 4089
13866 -4.3729778713740401 1.8905287213172126 16.112305492693643 139 126 71 0.20584047254327564 12 2730 15 3699 16 3933 14 9662 13 7665
13867 -4.6290181011900566 1.5805449560211022 16.58030799570567 37 28 0 0.30732502778242982 12 2052 15 3715 16 3949
13868 -2.9877522817748252 1.8727348380317461 24.24507762164027 143 128 99 1.3023568628137434 18 965 14 9692 3 7351 22 949
13869 -4.6114012139500868 1.2680682316260519 17.636488223120896 66 53 10 0.84148113703898741 12 2981 15 3737 16 3980 14 4315 10 9315
13870 -4.6138553359703049 1.2706430628641918 17.646883722104189 66 53 10 1.1946693845789309 12 2982 15 3738 16 3979
13871 -4.8005009094692008 1.1302797775138502 17.38268990340951 78 71 43 0.16962534771108681 12 2986 15 3744 16 3983
13872 -4.8176933421299131 0.90308045637406964 17.085859841128528 110 106 59 0.47127749081126907 12 2850 15 3760 16 4000 14 9738
13873 -4.6218930876315376 1.053811698360217 19.622977434902836 59 44 3 0.32457797581771813 12 2997 15 3763 16 4001
13874 -5.1959643397653732 1.4424242098445652 25.621460437958135 86 68 44 0.42412150005330884 11 4477 15 3765 16 5070 14 9729 13 6505 9 7170 3 8488 4 7411 8 7964 6 10738 5 8133
13877 -4.6019561030275193 0.65742234539400479 17.934195553433263 47 35 0 0.47326393495266422 12 1350 15 3784 16 8716 14 10250
13878 -5.0026613053605633 0.4407799696650524 17.260496951429904 52 39 5 0.61449605623435888 12 3019 15 3796 16 4041 14 4414
13879 -4.7705567770007749 0.30365879163098308 17.487959999798438 137 128 73 0.3848245567857474 12 3552 15 3810 16 8750
13880 -6.1483920423894984 0.61785162055371989 28.77245080533417 30 26 0 0.39511119307617443 12 3558 15 3812 16 4052 14 5821 13 9515 10 9408
13881 -6.6324102834398531 0.91383267302012772 40.564418093384838 151 138 86 0.6157182839024552 11 2824 22 942 24 1679 15 3813 14 4418 13 9512 10 7620 9 9352 3 8609 7 6272 1 8566 2 10268 8 10807 5 8021
13882 -6.2088638013795698 0.5652345281480019 29.383233428288889 94 91 53 0.1986081568910312 12 3563 15 3816 10 9415
13883 -5.9583359151279609 0.57508404906246624 30.539886454596068 45 36 3 0.6278532278541924 12 2104 15 3817 13 5493 10 4129 9 7676 3 8644 4 7263 7 9018 1 6059 8 10824
13884 -4.7143142858866058 0.15831533337206469 16.936581274041394 106 100 52 1.0997843935272227 12 3028 15 3824 16 4066 14 9831 13 5538 10 7731 2 10320 1 10538 8 8044
13886 -6.0466672625373032 0.34417912275927587 28.851832699564834 107 102 62 0.39412424173204369 11 3038 15 3833 14 4436
13890 -4.9459139726493779 -0.17679422860982422 17.955549652627621 53 42 0 0.37418255635134134 12 3048 15 3862 16 5327 14 4477 13 5600 3 7532 4 7758
13891 -5.0223371500371705 -0.18393146119895373 17.999055140205353 136 124 78 0.22631624811102199 12 2246 15 3863 16 4111
13903 0.50661349658747645 -0.67309999314773894 9.3458346992531851 167 115 65 1.4783052037938422 12 3139 15 3982 16 8951
13940 -1.6667472159192736 1.9684564404918883 10.926787876637869 92 77 56 0.16501786198625859 12 1479 15 4418 16 6919
13941 -1.4064879611624772 1.9854178739345683 11.255081427994922 98 85 68 0.92275051212180736 12 820 15 4430 16 4751
13942 -1.3041399223067756 1.9857775242890638 11.921518297948076 91 79 63 0.090807832681123551 12 2145 15 4464
13943 -2.4242350509296129 1.9630025628960883 11.823341625252464 133 117 94 0.26175413107048562 12 2161 15 4469 16 6880
13946 -2.783876936028578 1.9486558279273234 16.090512469741249 150 134 112 0.46266842279682374 12 2724 15 4554 16 6797 14 5479 13 5190
13947 -2.1025362264467318 1.8725407917916763 16.040686365376683 120 103 78 0.13499940018604095 12 1793 15 4563
13948 -4.3453916859376349 1.8310679963674301 15.642023931127838 116 104 59 0.36306316173480757 12 2727 15 4565 16 6786 14 7164 9 6776
13949 -4.3729778713740401 1.8905287213172126 16.112305492693643 139 126 71 0.20584047254327564 12 2954 15 4567 16 4896 14 7165 13 9387
13950 -4.3912264676055148 1.9010224063173606 16.524394383643333 95 82 40 0.61465718435933592 12 3459 15 4573 16 6776
13951 -4.40307161844955 1.8061280771211976 16.046441868993828 160 147 102 0.29842391816996788 12 2734 15 4574 16 4903 14 7152 13 7652
13952 0.46868767207862377 0.77448775575522788 9.8058795215007883 6 6 14 1.1359949866556283 12 1418 15 4580
13953 -4.470434235708109 1.7624853105809255 16.401417778797704 140 132 59 0.32334632946708008 12 2744 15 4585 16 4912 14 9668 13 9396
13954 -4.5035687154366668 1.6876265067752394 16.209286374652287 69 57 1 0.43214562464181788 12 2038 15 4589 16 4918 14 7135
13955 -4.3499127988929516 1.8153186539593478 17.44748007938772 78 56 25 0.5665313289013586 12 4257 15 4597 16 6753
13956 -4.6290181011900566 1.5805449560211022 16.58030799570567 37 28 0 0.30732502778242982 12 1392 15 4615 16 4938
13957 -4.7524669010330109 1.5579150905822756 17.017299992688571 56 48 11 0.60053873661701385 12 2765 15 4632 16 4948
13958 -4.4810837711397999 1.5478928765766617 17.455834158917575 116 107 46 0.25734314830023791 12 2773 15 4640 16 6712 14 7093
13960 -4.8555834749057265 1.5019911262074381 17.266466779872818 37 29 0 0.5451926029905414 12 2775 15 4647 16 6709
13961 -4.886939385395336 1.4527390231259545 16.987326789372442 40 30 0 0.17704350682365169 12 4292 15 4650 16 4967 14 5570 10 6632 9 5275
13962 -4.5563518694176839 1.4730889142901651 17.506137637366034 30 23 0 0.92685408611371989 12 2784 15 4658 16 8702 14 5575 13 7555
13963 -2.5899060151401709 1.7636329991118662 20.863135710280808 155 139 113 0.80602352390509713 22 521 15 4665 12 2019 14 5571 10 8859
13964 -4.4067492200842908 1.7339489875146279 20.493105120911899 149 130 98 0.58440579858082298 12 2794 15 4667 16 6695
13965 -4.943879513914653 1.3191411694344171 17.161522148211805 39 27 0 1.0031965725614438 12 2793 15 4674 16 3688 14 5597 13 3218 10 3265 9 3272 3 3633 4 3534 5 4606
13966 -2.5917999643540437 1.6641012338837535 21.076414573199429 143 128 99 0.77289225412580564 12 2983 15 4678 16 4981 14 7075 3 10450
13967 -4.6426780083798525 1.3442615652888719 17.518122190157467 39 27 0 0.58003675243737918 12 2797 15 4679 16 4985 14 7920 13 7532 9 6667 3 7319 4 7459
13969 -4.5439843969117026 1.2766399167989446 17.656226666209943 120 109 64 0.4225116250528273 12 2809 15 4696 16 5008
13970 -4.5910971141069448 1.2588759259086704 17.566462641447423 66 53 10 0.70856521355532565 12 2810 15 4698 16 5009 14 5610 13 7511 10 6596 9 6651 3 8148
13971 -4.7677410187774134 1.1496417387018532 16.748808549680309 42 36 1 0.26352964390132988 12 2813 15 4705 16 8657 14 7038 13 7495
13972 -4.5934650811869355 1.2027492396263832 17.654963041426988 118 105 61 0.41261473488101857 12 2006 15 4707 16 3686
13973 -4.8005009094692008 1.1302797775138502 17.38268990340951 78 71 43 0.16962534771108681 12 2824 15 4713 16 5028
13974 -4.7063855918257822 0.91255667683720065 17.570114770677492 98 92 60 0.48009396548034838 12 4378 15 4744 16 6600 14 6974 13 7445
13975 -5.4069392951099324 1.5733126660983514 28.277851270617724 89 67 43 1.382371822864976 12 4396 15 4754 16 6590 13 7459 9 7365 3 8025
13978 -4.7247598799129369 0.78677555213186501 17.64147594589781 134 122 71 0.63275474411722077 12 4395 15 4772 16 5088 14 4366
13979 -4.6168912589893392 0.73573616200418401 17.627064247891848 110 98 58 0.46419832590916749 12 2874 15 4780 16 5096 14 5734
13980 -4.8975461272616885 0.7278244578083396 17.45379514087584 80 73 36 0.60069107125670307 12 7856 15 4781 13 7403 14 6949
13981 -4.7633706935267188 0.67857370858679855 17.393726491753888 50 39 0 0.49430364184050024 12 2878 15 4789 16 6548 14 6933 13 7387 10 5376
13982 -4.5258648803183563 0.67096344557595311 17.413304033526455 65 51 12 0.55193936381747699 12 4408 15 4791 16 6546 14 5744 10 5374 9 7579
13983 -4.8500889955156303 0.58228223477346186 16.960497884046028 28 18 0 0.72358222598150279 12 1968 15 4803 16 3575 14 3954 13 7372 9 7613
13984 -4.6336510336427557 0.5523765886915506 17.700648434529104 78 69 40 0.16245482030719846 12 2898 15 4824 16 3727
13986 -4.7969211351626271 0.43922859144637727 17.129656847821575 104 95 64 0.37416788907321102 12 4449 15 4841 16 6503
13987 -5.0192356392594624 0.44047339893303966 17.301301381501673 52 39 5 0.61164536827605187 12 2913 15 4842 16 5161 14 5801 13 5468 9 5465 10 5430 4 7261 7 4685 6 7835 5 7974
13988 -4.7657349838873948 0.43417646518078612 17.55008321957316 24 18 0 0.29831166138916693 12 4453 15 4844 16 5164
13989 -4.8986534206211925 0.41931295781469446 17.122126310931002 134 122 82 0.32022222192214439 12 2959 15 4846 16 5165 14 8055 13 9509
13990 -4.8541672290589579 0.40257651185113397 17.140005520798866 45 37 0 0.23512194689444935 12 3091 15 4849 16 5171
13992 -4.6181208540890397 0.37984800339121499 17.246279625269452 119 114 62 0.56699781584873843 12 4462 15 4857 16 5174 14 8078 13 7318 10 7648
13994 -4.8013657428486276 0.33528651053633424 17.274091422417481 46 37 0 0.19495473993574658 12 4471 15 4869 16 6478 14 8094 13 7303
13995 -4.5958172203437426 0.32022192762039919 17.701255919869681 44 34 0 0.41049902172369723 12 4483 15 4874 16 5190 14 4425 10 4133 9 4540 3 10570 4 10337
13996 -4.6465220009867201 0.29890223913341674 17.341614667836087 145 136 81 0.80874881823542599 12 3074 15 4877 14 8112
13997 -4.7705567770007749 0.30365879163098308 17.487959999798438 137 128 73 0.3848245567857474 12 4488 15 4878 16 6464
13999 -5.0070904400231395 0.18299994474878309 17.198783336846194 73 63 15 0.7625803881939619 12 2140 15 4896 14 5859 10 7719
14001 -4.7884081759054595 0.16826315985144957 17.16323164606894 106 100 52 0.53543326039921157 12 2178 15 4904 16 5227 14 8142 10 9449
14003 -4.7359928322169749 0.13085096351786912 17.414918717408177 59 50 7 0.32582586129544888 12 2189 15 4918 16 5239 14 5869 13 7238
14004 -6.3591459219568396 0.3120883986072559 28.142485354128592 22 11 0 0.46412555448705006 12 4547 15 4919 16 6418 14 2649 13 5530 10 3748 9 5515 3 2659 4 3604 7 3777 1 3732 2 6002 8 3789
14006 -4.9409959150860798 0.030765036942656018 17.471697957334548 114 105 58 0.33104146156258318 12 3038 15 4942 16 5267
14007 -4.7775678085265305 0.022654897704829657 17.74848248989343 43 31 1 0.34013739060944248 12 2213 15 4944 16 5270 14 9854 13 9563 10 9468
14010 -4.7600998906310155 -0.052428378243793441 18.005981521113551 131 120 74 0.42968940466773659 12 4601 15 4966 16 5291 14 8211
14011 -4.9327768821871008 -0.058097011607102358 17.890841018427395 69 62 10 0.29403372161656943 12 4602 15 4967 16 6355 14 8213 10 7792 4 7397
14015 -4.8345002506932717 -0.1057807866346798 18.299102129229887 60 49 4 0.32006897630433628 12 4618 15 4984 16 5306 14 5932 13 7164
14018 -4.9407558096848403 -0.17517364850868289 17.940501792999683 53 42 0 0.52186428153897779 12 2245 15 4997 16 4109 14 5947 13 4269 3 11052 4 9724 6 10901
14024 -6.5510950541365078 -0.54408251533473806 28.889904173293456 120 107 59 0.57735863553832056 12 2279 15 5044 16 3730 14 5988 13 5628 10 5604 9 7867 4 8669 7 9213 1 8780 2 8596 8 7608 6 7651
14036 0.46124330192492019 -0.589772563861373 9.5654873963620961 13 3 3 0.51792282283136049 12 3117 15 5223 16 2594
14044 0.50661349658747645 -0.67309999314773894 9.3458346992531851 167 115 65 1.4783052037938422 12 2507 15 5276 16 7691
14046 0.46232091563754202 -0.70666732043448566 9.4713851360380534 119 75 46 1.7972940942229696 12 2514 15 5293 16 7705
14058 2.9789980883183582 -2.2520898487758387 22.903562146979063 88 94 82 0.83415239810601416 11 2509 15 5362 16 7815 13 6663 14 6269
14063 0.47188155753953515 -0.84387814029190999 9.3193338351975861 66 55 73 2.2215058024982368 12 1722 15 5389 16 5662 13 6711 14 8690
14064 2.9349103689707268 -2.5087388724009445 22.24077039797222 5 11 2 0.98780562232824465 11 2553 15 5413 16 5729
14123 1.6047567919117607 -6.7765848484839113 21.878566178011262 107 158 117 0.18734348886412938 12 7656 14 6687
14135 -2.0130150612815414 1.6521172503161772 15.106700289257818 108 91 63 0.13655663900825105 11 2108 15 5922
14136 -4.9828300016773737 0.75623692530654807 17.561680798053835 79 72 44 0.39115258976299139 12 6430 15 5928 16 6568 13 7413
14169 -4.898827177589447 -0.34759245753035922 19.21248196760888 72 59 9 0.20030550146980711 12 4675 15 6329 16 6274 14 8302
14174 -4.9540669095276124 -0.08689409103725422 18.112156441419998 99 91 44 0.38846788746782546 12 4614 15 6392 16 6349 14 8219
14181 -5.0219852813868577 0.18368676736172329 17.379230579310661 91 81 38 0.24775266222315398 12 4516 15 6499 16 6433
14182 -4.8084655753131056 0.28057278988581447 17.224763065714466 98 90 53 0.29895811228295222 12 4489 15 6526 16 5198 14 8113
14183 -4.7981062166369393 0.30820433082325038 17.422497959389297 61 51 2 0.27420682235805638 12 4484 15 6536 16 6468 10 7667
14184 -4.5310570543369764 0.32942053181979547 17.242646389486556 108 100 55 0.22263723285416509 12 6328 15 6541 16 6477 14 8093
14186 -4.5987770029829536 0.35987476718065209 17.339405405682452 71 63 14 0.79817175910830618 12 4467 15 6549 16 6484 14 8079 3 8662
14187 -4.9102779411370268 0.35972105836627888 17.152062071816097 57 45 5 0.10829919744589396 12 3959 15 6553 14 8080
14188 -4.6732583449449709 0.53540498527998448 17.507314514412815 40 30 2 0.573043607402551 12 8246 15 6589 16 5142
14189 -4.4758519626430342 0.7033340416197722 18.865825781760716 104 96 49 0.14552242599213605 12 2886 15 6614 16 6540
14190 -4.947405519294465 0.69460588051178074 17.464523301802618 20 12 0 0.25231755850084991 12 4405 15 6622 16 5106 14 6938 13 7394 3 10513
14191 -4.6127025066845793 0.7715066552812142 18.616554857745911 105 92 50 0.47274680450101664 12 2877 15 6626 16 6556
14194 -4.4129937440111737 0.94833143242585549 17.832760279685111 75 61 25 0.29965553812790574 12 4375 15 6674 16 6603
14195 -4.6529964383663902 1.2765036462846433 18.858307180492645 37 27 1 0.30775175180164321 12 6485 15 6715 16 6641
14197 -4.7195193201174757 1.2403521772377373 17.525208267017437 113 100 65 0.32346740396012186 12 4335 15 6725 16 6657 14 7045
14199 -2.4809231645665135 1.6518004141929412 22.051778184746603 162 145 119 0.67481476032096721 18 736 24 1598 15 6728
14200 -2.579305231197889 1.638253768539208 21.557239801837653 122 105 77 0.21478247963932395 11 2217 15 6733
14201 -4.7039267003314729 1.3753580966966419 17.569543653042757 102 93 60 0.12542225208219812 12 4316 15 6752 16 6679
14202 -4.8787390479598063 1.5060849687151601 16.979284993548241 91 83 41 0.22779482142187901 12 4288 15 6786 16 6714
14203 -4.5192666806193538 1.6515811710817374 17.453965711555607 41 27 0 0.31362248638396079 12 4278 15 6797 16 6728
14204 -4.2811148096013154 1.8857077519688981 18.530181796989925 163 146 120 0.47372371474491026 11 2146 15 6814 16 6745
14205 -4.3694126072061952 1.7685398853870917 16.190370176061982 72 61 5 0.34979574058128654 12 4229 15 6850 16 6767
14206 -4.346884918998783 1.9570497889253082 16.55824612197241 95 79 46 0.1747623842112038 12 4218 15 6868 16 6783
14207 -4.4474845818291273 1.8909644339176441 15.714152182222385 86 73 29 0.59680040786281063 12 4210 15 6874 16 6789
14208 0.40971356411828058 1.7795818332658004 14.617524868629989 83 76 70 0.631865069138423 12 6705 15 6892
14209 -2.4318077422237714 1.998728331835073 13.897042287414921 98 85 68 0.30215717095391936 12 2564 15 6924
14210 -1.7683285322482738 1.9452313482984402 12.400101851761844 122 107 86 0.49234519803796478 12 2255 15 6973 16 6862
14211 -2.1763881433399814 1.9225468433051078 12.209191813511898 144 129 108 0.011632456093406827 12 2239 15 6975
14212 0.53326255065230965 1.7839975981022442 11.712167134294656 88 84 85 1.32399892428653 12 2172 15 6982 16 4810
14213 -1.0411175281424081 1.9938682203782914 11.156803294155216 133 121 107 0.53747599116705935 12 4010 15 7047 16 6911
14216 0.45598985713925255 -0.75035209867681374 9.4536261535777104 137 93 56 2.0805638597526905 12 2539 16 7730 15 7420
14302 -1.6511134347915668 1.9725444372596634 11.051720764419157 90 75 52 0.081518365166503903 12 3335 15 8201
14304 -4.3694126072061952 1.7685398853870917 16.190370176061982 72 61 5 0.34979574058128654 12 3461 15 8268 16 8632
14306 -4.6683127635405244 1.1517691851918279 17.795383526242318 65 51 14 0.21709313357454038 12 2829 15 8314 16 8678
14308 -4.69564786671544 0.5373984172644144 17.573197447517462 40 30 2 0.39974171077459503 12 5890 15 8361 14 7743
14309 -4.8496533590108655 0.34397194622921096 17.084482193287695 125 117 70 0.41575164312763307 12 7886 15 8380 16 8743
14312 -6.100345757317073 0.17286455403844034 29.699935754327797 96 87 46 0.39412795670440093 11 3684 15 8415 13 9552 14 9837
14344 0.10060471489357829 2.0023523000638379 12.911438257079068 103 97 85 0.22192776314043783 12 2940 15 8865
14351 -4.8880529960675556 0.66520800239234079 17.506458548024654 57 49 7 0.50377113509041493 12 6409 15 8948 16 6543
14352 -5.248526547868761 1.3700383793465514 24.199905814277965 25 19 0 0.74662146859969714 12 4389 24 2480 15 2976 11 2361 12 1982 16 3117 16 6597 14 5662 13 5351 10 3083 9 3282 3 4563 4 4355 7 4630 2 10211 8 10752 6 7998
14355 -4.8981691736852007 1.8233782031568382 22.532842904424367 90 77 60 2.3694100958809492 12 4334 11 2214 24 2427 15 4684 11 4401 12 2807
14356 -4.9251432404038997 1.6535653567027377 23.256686945402588 158 135 111 1.2154593120279773 12 2834 11 2231 15 6714 11 4424 24 4988 16 5022 14 5616 13 7505 10 5272 3 7317
14379 0.60285161746881721 0.55728005062126118 9.7478825264611011 3 2 0 1.3965612928625513 15 7 14 34 13 44 10 35 9 31 3 49 4 49 7 51 1 81 2 75 8 90 6 91 5 94
14380 -3.3636596273274995 1.6470612076710942 17.476653757480179 173 156 126 1.6128884970340873 15 12 16 10 14 33 13 31 10 37 1 55
14383 -1.9366401497933805 1.7672700549936915 12.832224122006032 50 40 29 1.4621977435211089 15 11 16 23 14 32 13 41
14386 -1.4935095259688103 1.9894549743310688 10.505409091900823 147 131 111 1.2516564333378037 15 57 16 45 14 63 13 79 10 107 1 203
14389 0.59939821598565857 1.6710587234242109 9.6325845365272169 152 107 74 0.53933405553447433 15 70 16 67 14 127 13 183 10 167 9 304 3 279 4 301 7 480 1 486 2 477 8 472 6 488 5 603
14390 -2.0408023940792903 1.8204886354074215 10.898771035843534 180 160 133 2.1407531903803378 16 69 14 126 13 112
14391 -2.9719604610291626 1.9916184555526264 15.267994924897081 134 117 91 1.1558480096316261 15 91 16 72 14 173 13 181 9 307 3 283 1 317 2 472 8 501 5 491
14392 0.64681334517841838 1.821186565586054 9.5451496630431834 33 22 18 1.0852821580225194 15 87 16 75 14 128 13 184 10 166
14402 0.54157382219799177 1.647929487527876 11.042687242334896 74 65 56 0.48067418771643217 16 147 14 175
14403 0.40564880745735415 0.79712111174451916 10.140843485807965 95 88 80 2.3235737225669615 15 92 16 149 13 182 10 200 9 177 3 178
14404 0.45052775061208949 1.6850846795560082 9.937100399901583 39 34 28 1.1502643711674554 15 121 16 152 13 278 10 264 9 441 3 473 4 564 7 572 1 1033 14 244 2 1027 8 1042 6 1088 5 896
14407 -2.4736392650314749 1.984144173526182 10.896540800829387 119 108 88 1.2199452412679905 15 120 16 164 14 243 13 454 10 451 9 551 3 1033 4 987 1 2368 2 3205 8 3322 6 3330
14409 0.52758568989665877 -0.72112397493676561 9.5168829081835185 215 160 100 1.5304376814818439 15 134 16 181 14 272 13 305 10 333 9 403 3 438 4 501 7 632 1 693 2 633 1 631 7 688 8 618 8 653 6 651 6 691 5 852 5 1211
14410 0.376978347704234 0.57892536303040942 9.8163274551688158 3 2 1 0.8689416263389792 15 200 16 190 14 260 13 439 10 430 9 427 3 568 4 1036 7 1088 1 1077 2 1072 8 1089 6 1125 5 1151
14411 -5.0401199840248472 1.5345264282525168 16.279640787435817 34 28 6 0.72217717283596972 15 154 16 192 14 170 13 283 10 269 9 312 7 471 1 481 8 460 6 479 5 608
14422 -4.8638553259891442 1.1216458873370296 16.268681754041971 37 29 16 0.73248036153505247 15 275 16 256 14 345 13 336 10 666 9 577 3 562 4 579 7 591 1 586 2 1057 8 1075 6 1113 5 1139
14423 0.47461479527193179 1.8952306943764659 18.747054363274504 61 50 33 1.3262025261523669 15 418 16 257 14 341 13 443 10 442 9 569 4 1005 2 1494
14424 0.74016765357725511 1.8882689573525124 9.4343978335896637 30 22 20 1.2832538170988919 15 149 16 264 13 512 10 923 9 965 3 1027 4 1779 1 2328 6 3317
14425 -1.8752596849083689 1.9347715265407734 11.461669184526947 67 49 25 1.3399095390854856 15 293 16 269 13 519 7 1899 1 3331
14427 0.40001451216937478 1.7465392454915338 11.82403197385624 26 19 13 0.042262854941101741 15 185 16 272
14429 -4.4105127429476401 1.8818198603541185 15.723479973839394 62 50 9 0.51507333328812666 15 300 16 277 14 454 13 448 10 446 9 445 3 551 4 568 7 789 1 573 2 1036 8 1054 6 1093 5 1118
14430 0.28362608692323871 0.54185327563932872 9.843752012321298 108 100 89 2.1880781327437377 15 203 16 281 9 1037 7 1089 1 2639 2 2595 8 6054
14431 -4.8638553259891442 1.1216458873370296 16.268681754041971 37 29 16 0.73248036153505247 15 305 16 282 14 445 13 441 10 503 9 686 3 702 4 642 7 714 1 710 2 877 8 845 6 913 5 882
14437 -4.8597338470026914 0.99503311051386656 16.501078198669571 85 81 39 1.2292547228570458 15 274 16 342 13 670 10 831 9 867 4 803 7 712 16 255 2 875 6 1536
14438 -4.833032958670314 0.97622682407001771 16.403108663899577 85 81 39 1.3749374787655202 15 273 16 343 13 671 4 804 7 711 16 284 2 876 8 586 6 624 5 615
14439 -0.02824339431423404 1.9246249723674187 9.4291975918202198 83 74 57 1.0128527394944222 15 455 16 344 14 983 13 1740 10 2916 9 3229 3 3284 7 4533 1 8210 8 10630
14440 3.0410748084401313 -1.4126199502765013 20.277798549748706 0 2 1 0.20890112637190347 15 382 16 350 14 647
14451 0.35946556328356982 -0.34489561103048771 9.6444618058760074 11 12 13 2.230962512377435 12 122 13 2069 15 1033
14452 -4.8335201864986823 0.99114381877830759 16.424969739133303 85 81 39 1.5253369240946031 15 306 16 447 13 537 10 986 9 1025 3 2129 4 1029 7 594 7 2313 16 254 1 2270 2 1061 8 670 8 1911 6 705 6 1927 5 708 5 2312
14453 -4.4251948174153197 1.685102399315547 15.787685469510922 133 126 46 0.57535528131399094 15 426 16 458 14 250 13 467 10 627 3 745 4 713 7 1058 2 1039 8 1063 6 1097 5 1123
14454 0.45351197589185965 1.8408787015353958 9.7175737375258873 40 30 21 1.3922786894820864 15 284 16 460 14 534 10 3952 7 4542 1 10349 8 3312 2 1021 5 10908
14455 -4.2409230221535381 1.8831064177202557 16.270983611042858 73 54 22 0.69616566248470058 15 247 16 462 14 493 13 526 10 493 3 1050 4 1002 7 1053 1 1046 2 1037 8 1056 6 1887 5 2347
14456 0.3718278135578591 1.9197977296633981 11.308938981177556 67 58 49 0.59412084956620892 15 291 16 471 14 460 13 517 9 1788
14457 0.49654007331770794 1.7694449446054354 15.119161986786343 58 46 34 0.55249431853396647 15 429 16 476 14 746 13 858
14458 2.898704161202502 -2.7780290896655737 19.233641649141791 5 8 2 0.60080342074237392 15 363 16 481 14 726 13 1172 10 1142 9 1180 3 1226 4 1156 7 2089 1 2051 2 2093 8 2134 6 2288 5 3000
14459 -2.4380288821638203 1.9748716832594237 9.6844834065077485 120 109 91 0.83456354317403814 15 503 16 500 14 986 13 1738
14460 -0.54526638523082849 1.9367460528855487 9.7352001996539315 119 110 93 0.5113446243686155 15 454 16 501 14 989 13 956 10 1651 7 5943
14461 -2.6060717032469709 2.0047178897508102 10.171047811957477 146 135 117 0.5344933064416183 15 242 16 503 14 485 13 1289
14462 0.93046256689311735 1.843445064580149 9.9945533202028134 68 56 42 1.8244079266702584 15 286 16 504 14 995 3 1825 7 1888 1 2369
14463 -2.421500969806861 1.9746526654158174 10.679601250114299 113 102 84 0.80987571826947613 15 288 16 507 14 1000
14464 -0.18928631573763993 1.9781840494359342 11.030792857226567 110 101 84 1.809612059597089 15 447 16 509 14 1003 9 5081 3 7560
14465 -2.6975541261881686 1.9814538107066466 10.918749289416418 152 141 121 0.99888950821367961 15 289 16 510 14 1004 13 1749 10 2936
14466 -1.9236401131095175 1.8257777278083636 11.51402552230703 133 126 119 0.88750795803378357 15 439 16 518 14 556 13 974 3 1339
14467 -1.8586417743124686 1.8399628141226465 11.727990625077847 49 30 15 1.4517988197523513 15 513 16 519 3 3317 1 2351 2 1828 8 1046 3 547 5 2209
14468 0.2290952191228641 1.7702679372795711 12.510916645956353 79 71 63 1.3229148776949688 15 436 1 3362 16 525 2 3247 6 3360
14469 -3.8190162699999135 1.9930276814740524 15.522736484161641 130 109 80 0.65605221174767581 12 262 16 532 13 990
14470 -4.5645531895347453 1.7339487994701097 15.34816020153181 74 62 14 0.42898659215294499 15 816 16 537 14 1040 13 1787 10 1451 9 2167 3 3604 4 3502 2 4377
14472 -5.0550352414526847 1.5980300964963019 16.090712982936147 41 37 12 0.50295448193003733 15 493 16 540 13 998 10 964 9 1003 3 1059 4 2215 7 2347 1 2310 2 1860 8 1882 6 1904 5 2339
14473 -4.6892232301413763 1.1609066353622528 17.879042893572514 78 66 26 0.6067048973458371 15 537 16 544 14 853
14474 -5.3039647358747324 -0.2215543231351331 17.802757868908188 132 119 66 0.76794761293504843 15 402 16 574 14 529 13 556 10 1040 9 1078 3 2224 4 2123 7 2240 2 2686 8 2289 6 2193 5 2758
14476 0.60403183458838283 -0.66377829633055163 9.4901962386720502 42 9 0 1.394656039891738 15 381 16 601 14 1176 13 1106 10 1529 9 1989 3 2161 4 2069 7 2922 1 2818 2 2798 8 2852 6 2876 5 2851
14478 2.8908850165466982 -2.1134738430867461 20.503333196205432 13 18 12 0.45073488542059992 15 371 16 611 14 560 13 1138 10 775 9 806 3 1447 4 1358 7 3862 1 3798 2 3741 6 2196 5 3850
14479 2.6737299296613632 -2.3178261729077883 19.354635589573505 76 80 66 0.94104417797643081 15 632 16 620 14 1221 13 1983 10 1945 9 1936 4 2830 3 2940 7 6779
14485 2.8975258434485069 -2.1172549163763068 20.544733102342342 13 18 12 0.51366458155002526 15 472 16 659 14 642 13 789 10 1106 9 1147 3 2115 4 2030 7 2986 1 2857 2 2874 8 2297 6 1445 5 2924
14486 2.7788536764774321 -2.8361218084818662 19.931791219084388 3 5 0 0.60141930987528081 15 670 16 680 14 1241 13 1168 10 1914 9 1911 3 2077 4 1994 7 3067 1 2931 2 2943 8 2984 6 3010 5 2993
14487 -4.7108619782409491 0.49679037522148084 18.399036620558459 14 5 0 1.1074320357441472 15 640 16 688 14 837 13 832 10 1390 9 1446 3 1103 4 3596 7 1468 1 1088 2 1080 8 1097 6 1134 5 1157
14489 -4.5587571077988462 1.7330541370772481 15.333117146962159 74 62 14 0.52877637440282732 15 936 16 701 14 870 13 1513 10 1699 9 1500 3 3369 4 3255 7 3454 2 5740 8 5879 6 5901 5 7475
14490 -2.5722601373005372 1.9534226658685157 14.39435321594849 104 89 68 0.28407351408510945 15 488 16 704 14 878
14494 -4.4433298955264098 1.8044620344518307 15.199166623842483 64 52 6 0.70262991021301691 15 527 16 764 14 873 4 1301 2 3568 8 3393 5 3465
14495 -4.446626531715081 1.8041067076545807 15.202967760132886 64 52 6 0.63181165188966348 15 647 16 771 14 1034 10 1696 9 2169 3 1438 4 1388 7 3447 1 3399 2 3272 8 3693 5 3665
14496 -4.7125882414641094 0.76013642899217737 17.388679505040315 120 110 59 0.35991934290391842 15 544 16 781 14 1085 13 1030 10 1000 9 1288 3 2279 4 2186 7 2299 1 2252 2 1969 8 1925 6 1943 5 2293
14497 0.47246275186703229 1.7971781768583697 9.5148565054304495 43 25 15 2.0821996616392418 15 863 16 783 7 5966 1 8227 14 682 5 8318
14498 -4.7119128645567985 0.76017830878365478 17.386823429276163 120 110 59 0.37503636341880947 15 642 16 787 14 843 13 842 10 820 9 1040 3 1528 4 1422 1 1505 2 1467 8 1479 6 1519 5 1550
14499 -4.7162549783986139 0.76008591092762745 17.403297902532206 120 110 59 0.31798644232384793 15 641 16 788 14 844 10 821 9 1035 1 1506 6 1520
14502 -5.5550202225709731 0.17706804572599436 17.110780814458717 97 88 45 0.55381917259237168 15 786 16 833 10 1381 9 3343 1 3738 2 4517 8 4631 6 4108
