# 3D point list with one line of data per point:
#   POINT3D_ID, X, Y, Z, R, G, B, ERROR, TRACK[] as (IMAGE_ID, POINT2D_IDX)
# Number of points: 354, mean track length: 5
22509 -0.1294820822323266 -0.05565528612800559 3.029831950602301 113 103 91 0.82257497796196721 3 2493 6 3251 2 5566 1 5424 7 8413 4 8422 8 8500
22510 -0.12948291747397855 -0.05565526435748519 3.0298320941755246 171 155 132 0.32382003964977313 3 2380 6 3266 2 3210 1 5441 7 5619 4 5650 8 8486
22511 -0.12948347820265965 -0.055655177521630864 3.0298324287969893 157 144 127 1.4553891059281792 5 1746 9 924 6 3274
22512 -0.1294835261940247 -0.055655173199656099 3.0298324921283903 138 125 108 0.52625748104526338 5 2578 6 3278 1 5459
22514 -0.12948193366988381 -0.055655278875816172 3.0298325346862827 116 107 92 0.68618291349267968 3 1726 5 1765 6 3302 2 1849 1 5496 7 5661
22515 -0.12948197694590968 -0.055655242525748175 3.0298327729766501 94 86 67 1.0383508834420749 3 1729 5 1770 6 3305 2 3234 7 5668 4 5698
22516 -0.12948204415547426 -0.055655238726983261 3.0298327772807214 104 93 76 0.44782687963486739 6 3308 5 4392 1 10078 2 10309 9 1543
22517 -0.12948246807607333 -0.055655227060940796 3.0298328867043804 127 115 101 0.243662056026375 3 3106 6 3312 2 5646
22518 -0.12948195546071717 -0.055655287810314591 3.0298328006074673 117 108 91 0.76499153431362288 3 5425 6 3319 5 5620 2 5657 4 5707
22520 -0.1294837523723722 -0.055655177333622352 3.0298334356327623 154 142 118 0.66574073713840243 5 1792 6 3333 9 1699 2 3259 7 3636
22521 -0.1294829674179529 -0.0556552456926903 3.0298332553853 131 116 91 0.45211525727984764 3 5460 6 3334 5 5676 2 3261 1 5541 7 3255 4 8311
22523 -0.12948247727790524 -0.05565523124923033 3.0298335244226 119 106 88 0.64478066153294056 5 1797 6 3340 9 2941 7 5718
22524 -0.12948183225917093 -0.055655154182959327 3.029834002088994 49 44 41 1.4003559658714824 3 4230 5 4428 9 1719 1 4304 2 3271 7 3266 4 4457 8 3387
22525 -0.12948426178141104 -0.055655137081616693 3.029834141940368 110 93 73 0.53721691730910304 9 2965 6 3359 2 3282 7 5744 4 5766 8 5892
22526 -0.12948218605029349 -0.055655170064084367 3.0298340784937419 110 97 81 0.74568593317609955 3 1767 6 3360 2 3279
22527 -0.12948227138432988 -0.055655236687116971 3.0298339892778166 117 106 88 0.5999680571131345 5 3269 9 1735 6 3370
22528 -0.12948001312809276 -0.05565599240464443 3.0298396086575377 0 7 0 0.44513309077803997 3 1399 5 2241 9 1068 6 3372 2 3736 1 1442 7 3793
22529 -0.12948309745855363 -0.055655328393347039 3.0298337571601763 80 67 50 0.68098337065807235 9 2982 6 3377 2 3304 7 3302 4 3319
22531 -0.12948466954810384 -0.055655354210014857 3.0298343038209996 23 12 0 0.50279254031874876 3 1431 5 1834 6 3409 1 2353 2 3344 7 3355 4 3347 8 3425
22532 -0.12948468529345825 -0.055655359737570909 3.0298346550815118 91 86 46 0.71702460795733636 5 1043 9 982 6 3416
22533 -0.12948479543654612 -0.055655409418176441 3.0298344344793682 99 90 51 0.44269139653171263 3 3486 5 3326 6 3423 1 3244 7 5835 4 3637 8 5987
22536 -0.12947977527359761 -0.055655203125089397 3.0298360011129883 102 98 86 0.95539979140762876 3 3491 6 3434 2 5802 1 3555 7 5832 4 5862 8 6009
22537 -0.12947979219122857 -0.055655204929617147 3.029836082801185 5 1 0 0.75864618188203925 3 1846 6 3436 2 5809 1 3561 7 5839 4 5866 8 8255
22540 -0.12948173251632039 -0.055655461075400953 3.0298347785365518 90 83 77 0.94927881308785544 3 5628 6 3445 2 5818
22541 -0.12948195772770654 -0.055655508688273528 3.0298343846454672 69 64 60 1.7741681143257235 5 5882 9 3045 6 3446 4 8149
22542 -0.12947969359372291 -0.055654957127180396 3.0298382526986778 12 5 0 0.73479815697616058 3 2001 5 1861 9 996 6 3450
22543 -0.12947982662826757 -0.055654931146596767 3.0298385843625297 13 4 0 0.5850422999099586 3 3247 5 3367 9 2166 6 3453 2 3642 1 3281 7 3387 4 3647 8 6041
22544 -0.12947989096822582 -0.055654960445068166 3.029838571483455 93 86 72 0.68781820390458404 5 3371 9 3079 6 3458 2 5838 1 3291 7 5872 4 5896 8 6043
22546 -0.12947962046819328 -0.055655096256328015 3.0298379716360886 7 4 0 0.88520444431419054 3 3264 5 3378 9 2159 6 3466 2 5848 1 3303 7 5881 4 5913 8 8218
22547 -0.12947981942321268 -0.055655348444673847 3.0298363334167671 87 92 70 0.67468953175809609 3 1372 5 1868 6 3473 2 3645 1 3582 7 3295 4 3655 8 3677
22550 -0.12948271405896788 -0.05565529824157732 3.0298310635929835 91 79 57 0.76728286424899961 3 867 6 3540 1 4206
22551 -0.12948168970767221 -0.055655322716984756 3.0298311262887263 131 119 103 0.58456328490909248 3 1609 6 3550 2 3526 7 4373
22552 -0.12948238270904483 -0.055655316516373052 3.0298311502969355 150 141 124 0.91083283377888014 3 1542 6 3556 7 3567
22554 -0.12947972865522461 -0.055655265215444422 3.0298370529388849 74 79 56 0.40245593946930985 3 3271 5 3383 9 3085 6 3568
22555 -0.1294824193041455 -0.055655318341921695 3.029831273331919 98 86 72 0.8330480881893827 3 1640 6 3575 1 4230 4 4392
22556 -0.12948214895867421 -0.055655310992517998 3.0298314877746111 143 133 121 0.46684185482650253 3 2439 6 3589 1 10024 7 8497
22557 -0.12948321500721294 -0.055655156236388947 3.0298327093590678 161 157 145 1.061521464051165 5 1593 6 3615
22558 -0.12948371869974806 -0.055654527353424313 3.0298352560716557 104 100 88 2.0373902569787323 3 1571 7 3232
22560 -0.12948212091275346 -0.055655262131647912 3.0298333263268034 151 138 121 0.95817966625723128 5 3546 6 3629 2 4422 3 5471 1 3517 7 3258 4 4451
22562 -0.12948466628848887 -0.055655356075430887 3.0298342962807001 23 12 0 0.54024016257808427 3 1302 5 1563 6 3660 1 3199 4 3625 8 3653
22563 -0.12948466719367235 -0.055655310602216942 3.0298348375706401 109 102 62 0.35433317292753425 5 1480 6 3663 9 1852 4 4501 8 4526
22564 -0.12948479543654612 -0.055655409418176441 3.0298344344793682 99 90 51 0.44269139653171263 3 3217 5 3582 6 3669 1 3549 7 4483 4 3369 8 4532
22565 -0.12947976823875612 -0.055655193259225022 3.0298361508420459 5 1 0 0.78674930203140636 3 1460 6 3677 2 4471 1 3560 7 4487 4 4510
22566 -0.12947979219122857 -0.055655204929617147 3.029836082801185 5 1 0 0.75864618188203925 3 1461 6 3678 2 4470 1 3262 7 4488 4 4509 8 10934
22567 -0.12947984407753865 -0.055655015231640736 3.029837740564254 12 5 0 1.6342522762405365 3 3499 6 3686 9 1325 2 3640 1 3279 7 3385 4 5886 8 6025
22568 -0.12947989003000138 -0.055654960336889769 3.0298385742992395 93 86 72 0.74210363171022509 5 3606 9 3255 6 3687 2 4486 1 3576 7 4501 8 4560
22569 -0.12947981942321268 -0.055655348444673847 3.0298363334167671 87 92 70 0.67468953175809609 3 1300 5 1558 6 3689 2 3414 1 3309 7 2371 4 3413 8 2368
22570 -0.12947988096237267 -0.055655066904998801 3.0298386107838842 88 87 65 0.76339430739034519 3 3276 5 1554 9 1492 6 3691 2 3419 1 3315 7 3412 4 3415 8 3679
22572 -0.12947986872188133 -0.055655448562788618 3.029836767961152 3 5 0 0.73612511566851879 5 3621 6 3704 2 4513 1 3604 7 4524 4 4549 8 4603
22573 -0.1294797940483875 -0.055655259913600236 3.0298384181587013 84 87 69 0.64999373845207875 5 3429 9 3118 6 3705 2 5897 1 4406 7 4525 4 4550 8 4602
22577 -0.12947987838225106 -0.055655594594271843 3.0298367732319398 13 16 0 0.80445834534148675 5 1541 6 3726 1 3622 7 3725 2 1341 4 3691
22578 -0.1294799146514764 -0.055655704995844116 3.0298367351764486 5 7 0 0.60764995698711399 3 3552 5 3651 9 3292 6 3738 1 4456 8 4655
22579 -0.12947996059414907 -0.055655684090612029 3.0298370387016225 72 76 61 0.47277507139975505 3 3554 5 3262 6 3740 2 3680 1 3631 7 3740 4 2653 8 4657
22580 -0.12948602156728145 -0.05565572282548896 3.0298372426478499 90 81 41 0.59706143250503074 9 2177 6 3744 5 6102 3 5843
22581 -0.12947983278384401 -0.055655512477867958 3.0298397171842204 7 17 0 0.91099739094282062 5 1530 9 1459 6 3747 3 3564 2 5995 7 4573 7 4574 4 6051 8 8062 8 11022
22583 -0.12947985774678006 -0.055655624238681853 3.0298385768591247 3 6 0 0.22768686309981925 3 1297 5 1820 9 1460 6 3752
22585 -0.12947992715833756 -0.055655728767088894 3.0298382456301125 76 80 66 0.27809180870556716 3 1295 5 1525 9 1456 6 3760
22587 -0.12948003362849569 -0.055655877760861935 3.0298365261763505 94 97 83 0.44905341865508686 3 3583 5 3672 6 3763 9 1454 2 3706 7 3770 4 4110 8 3742
22588 -0.12948004062833401 -0.055655879353562185 3.0298365053798344 94 97 83 0.42179392938708959 3 3584 5 3674 9 1452 6 3764 7 3769 4 4109 8 3743
22591 -0.1294800716735281 -0.055656083025745332 3.0298371036661664 5 10 4 0.11091481405806308 9 839 6 3787
22592 -0.12948006221210123 -0.055656147439136938 3.0298365356494052 5 6 1 0.63046322612105166 3 4449 5 3708 9 2054 6 3789 1 4534
22593 -0.12948004683071024 -0.055656186721443096 3.0298362525046252 3 7 0 0.45170826761741739 5 3712 6 3792 1 6091 7 7679 4 4661
22594 -0.12948011069800713 -0.0556563231663047 3.0298373860845853 100 104 89 0.27093271774226524 3 3638 5 1503 9 1427 6 3805
22595 -0.12948011795231318 -0.055656390007108966 3.029835219906782 3 9 0 0.31183606315698281 3 1383 6 3809 2 4653 1 3688 4 4688 8 6447
22596 -0.12947984745187002 -0.055655048929758644 3.029838737332927 88 87 65 0.67391197387823198 3 3508 5 1875 9 2151 6 3810 2 3647 1 3585 7 3698 4 3657
22597 -0.12948016602954171 -0.055656486479637821 3.0298369601113233 1 6 0 0.40389364901792368 9 2019 6 3816
22598 -0.1294801341925409 -0.055656487440469554 3.0298378125753938 69 72 64 1.168012861378658 9 1420 6 3817 2 3756 1 3697 7 3819 4 3787 8 4768
22600 -0.12948016428473386 -0.05565657035644915 3.029839194439782 0 3 0 0.41058114179633276 3 1378 5 1490 9 1417 6 3824 2 2773 1 2758 7 3830 8 6507
22601 -0.12948016428473386 -0.05565657035644915 3.029839194439782 0 3 0 0.41058114179633276 5 2193 9 2012 6 3825 3 2096 2 3763 1 3701 7 2811 8 4778
22602 -0.12948196214869517 -0.055656549856536189 3.0298345725129989 16 13 4 1.2602068064933687 3 2702 5 1481 9 1098 6 3832 2 1461 1 2770 7 2820 4 2845 8 3806
22603 -0.12948191980727125 -0.05565656869925957 3.0298346330198145 153 139 128 1.5143546889433461 3 2701 5 1474 9 825 6 3834 2 1457 1 1420 7 1439 4 1475 8 3351
22604 -0.12948017664252531 -0.055656707195332417 3.0298367817480649 104 108 95 0.26049304656802547 3 3669 5 1465 9 1408 6 3838 2 3774 1 3713
22605 -0.12948193505029931 -0.055656736768931167 3.0298344866712887 56 14 1 1.4844412005033292 3 2760 5 2864 9 1978 6 3843 1 6333 7 4085 4 4761 8 6617
22606 -0.12948019621649448 -0.055656852722438699 3.02983536572461 111 115 96 0.69341267507350035 3 2043 6 3856 5 1347 2 2118 1 825 7 2200 4 2914 8 2173
22607 -0.12948032531664083 -0.055657253486906214 3.0298391414898256 6 12 0 0.53035680993018741 3 1358 5 1447 9 806 6 3862 2 3798 1 3741 4 2196 8 3850
22608 -0.12948028245993815 -0.05565701461555643 3.0298356103357977 29 34 7 1.2767155104826671 3 2821 5 2930 9 1944 6 3872 2 4770 1 2882 7 2912 8 4864
22610 -0.12948021935988036 -0.055657032988752159 3.0298353282217461 5 8 2 0.52698696595464278 3 1350 5 1439 6 3876 2 3807
22611 -0.12948034137949366 -0.05565734129099649 3.029837941025733 99 105 79 0.43011609041625853 3 1291 5 3824 9 1314 6 3880 2 2891 1 3757 7 4795 4 3855 8 4872
22612 -0.12948033674251774 -0.055657345031633026 3.0298379624549439 99 105 79 0.34589781520204205 3 1292 5 3823 9 1313 6 3881 4 2971
22613 -0.12948027245319504 -0.055657301618620314 3.0298359383039739 70 76 62 0.46094420228885802 3 1991 5 2071 9 1902 6 3893 2 3824 1 3765 7 4821
22615 -0.12948027674254386 -0.055657374589068789 3.0298351127069365 76 81 61 1.0315869471182753 5 813 6 3908 3 747 2 841 1 804 7 791 4 2135 8 2102
22617 -0.12948027017214614 -0.055657414477423853 3.0298348395781614 91 97 70 0.69012832386915945 3 2951 6 3919 2 3846 1 3017 7 3062 4 3070 8 4922
22618 -0.12948028418955304 -0.055657573949448494 3.0298354769812126 11 20 3 0.70814350935038006 3 3756 5 1413 6 3925 7 3915 1 3787
22627 -0.12948325182665704 -0.055655249169767385 3.029834216648768 108 96 83 0.57062994702665026 3 1781 5 3290 9 1740 6 4111 7 3655 4 5798 1 5607 8 4499
22628 -0.12948319276677644 -0.055655257553967219 3.0298330521541903 98 91 76 0.15557792404913409 3 1747 5 3205 6 4113
22629 -0.12948019517092002 -0.05565795960107707 3.0298371320201993 40 46 2 0.76898459618024717 3 2974 5 3101 6 4118 9 2847 2 6753 1 3043 7 6763 4 6797 8 9906
22630 -0.12948252575128927 -0.055655301636573604 3.0298312486214609 153 141 127 0.37684205564191953 3 1631 6 4131 2 4101 1 5291
22631 -0.12948171844037593 -0.055655319616738655 3.0298314039883518 110 100 88 0.52334796593160382 3 3963 6 4133 2 7529 1 5333 7 11213 4 8505
22637 -0.129480129105082 -0.055656437757969496 3.0298365417416204 81 86 64 0.44450690072755539 3 2653 5 2772 6 4171 9 2527 2 6251 1 6176 7 6265 4 6294 8 7679
22638 -0.12948017753219004 -0.055657082501738953 3.029836533793969 6 10 5 0.97834305230051943 5 2924 9 2684 6 4174 4 9385 8 11662
22639 -0.12948242614258354 -0.055655308435329634 3.0298311861950804 178 166 152 0.25296455583683547 3 4064 6 4352 2 10158
22640 -0.1294819068893282 -0.055655343220701786 3.029831211557902 162 150 133 0.52006978295097184 3 3373 6 4365 1 4228 2 5440 4 8530 8 10802
22641 -0.12948191683547094 -0.055655341301929145 3.0298312255140751 80 68 52 0.42053202471293799 3 3378 6 4367 1 10002 7 10518
22642 -0.12948191714573842 -0.055655340212161619 3.0298312268995065 80 68 52 0.43662112328269964 3 2392 6 4368
22643 -0.1294828498532431 -0.055655302762724221 3.0298313272454149 137 125 101 0.4276643289589715 3 2423 6 4382 1 10013
22644 -0.12948331521517537 -0.055655221698900026 3.0298314718710415 136 124 110 0.49382493313662013 5 1629 6 4387
22645 -0.12948216272626134 -0.055655316799695362 3.029831346867403 125 115 103 0.12866526707019524 3 3387 6 4388 2 4351
22646 -0.12948222592345798 -0.055655309310146533 3.0298314072652874 135 123 107 0.73685789034506421 5 1620 6 4396 2 4356 1 5329 7 8515 4 5579 8 10819
22647 -0.129482789432741 -0.055655305094083271 3.0298314261773869 125 110 87 0.74932317738556087 3 5159 6 4401 2 7526 7 8508 4 8499
22648 -0.12948298855682749 -0.05565533567095482 3.0298314789328993 103 87 74 0.59178598518802739 5 4255 6 4424 7 8471
22649 -0.12948171199958036 -0.055655326897326149 3.0298321052673538 126 117 102 0.47255894839401169 3 4185 6 4462 2 7361 1 10059
22650 -0.12948291127751382 -0.05565527190830924 3.0298323068994035 122 111 93 0.17897477315320917 3 2994 6 4465
22651 -0.12948169010761479 -0.055655294270324562 3.0298323142289223 119 109 99 0.65054870588402702 5 3509 6 4467 3 5362 2 7342
22652 -0.12948169551651229 -0.055655305125865168 3.0298322869854877 119 109 99 0.52217614652674826 5 2580 6 4468 3 4192
22653 -0.12948338935459847 -0.055655201921653602 3.0298325777959261 128 116 94 0.50786767246273345 5 3520 6 4472 7 10587
22654 -0.1294820490955283 -0.055655249270255849 3.0298326803089335 124 115 98 0.29573205455525869 5 3527 6 4481 3 4852
22655 -0.12948107587240171 -0.055655244058214565 3.0298328228961577 81 75 63 0.4815796649324659 5 4396 6 4490 3 10101
22656 -0.12948381038462464 -0.055655167215760665 3.029833307486145 185 170 149 0.13869793152102439 5 3539 6 4499
22658 -0.12948276859119712 -0.055655251696209412 3.0298334408468013 133 117 94 0.33403449315231337 9 1527 6 4509 2 4424 1 7580 7 10612 4 5738
22659 -0.1294826659740006 -0.055655248296714074 3.0298334700489176 158 145 126 0.15322949290935189 5 3548 6 4511
22660 -0.12948267082810072 -0.055655228266388218 3.0298335449976279 158 145 126 0.54496697713590214 5 3549 9 2942 6 4512
22661 -0.12948242079807465 -0.055655237213979331 3.0298341061474643 120 108 92 0.40199061088013255 5 3275 6 4526
22662 -0.12948431255919934 -0.055655267730305907 3.0298339496681526 90 73 14 0.33064658752024195 3 5537 5 3282 9 3228 6 4531 2 10342
22663 -0.12948428959382935 -0.055655273631004878 3.0298339705504738 158 145 90 0.33138265019127011 3 3466 5 3569 6 4532 2 5734 1 5604 7 8211 4 10629 8 8340
22664 -0.12948224453023571 -0.055655193244372111 3.0298344226670522 121 109 93 0.89340119288682818 5 3284 6 4533 9 3229 2 8210 7 10630
22665 -0.12947991272423282 -0.055655058988631656 3.0298359740681802 96 86 77 0.64888804284058776 3 4268 5 4479 6 4549
22666 -0.12947990932889303 -0.055655052966076271 3.029835983772724 96 86 77 0.97377305622219879 3 5580 5 4478 6 4550 7 10656 2 10362 4 8206 8 8294
22671 -0.12947979136530763 -0.055655275901899254 3.0298364028136953 8 8 0 0.67826291003278649 5 3360 6 4583 2 5836 8 6052
22673 -0.1294811871594565 -0.055655744957341102 3.0298338190245069 26 20 6 0.86840419884634468 9 1499 6 4587
22674 -0.12947983878760416 -0.055655376281698199 3.0298366069614757 16 21 0 0.70189886812190061 3 4309 5 4510 6 4590
22677 -0.12947981250350765 -0.055655469751307654 3.0298366586908849 13 16 0 0.44178904648982265 5 1887 6 4603 3 3295 9 1486
22678 -0.1294798148592099 -0.055655491376965738 3.029836528004596 81 84 62 0.3941554414321411 5 4528 6 4604 3 10233 9 4025 2 10406
22683 -0.1294799653769953 -0.055655533612121263 3.0298369926384012 75 82 66 0.67312335557536773 5 3929 6 4619 2 10425 1 10205 7 10735 4 10732 8 8122
22684 -0.12948000389868641 -0.055655698490133493 3.0298356327153302 7 11 0 0.64818378178693281 3 5746 6 4623 5 8286 1 4431 2 4530 7 4544
22688 -0.12947992265182856 -0.055655625603941591 3.0298368869389942 6 8 0 0.66957209948495777 3 4353 5 3640 9 3279 6 4636 2 8449 1 8269 7 10753
22689 -0.12947993818422804 -0.055655648891485332 3.0298367041688321 99 102 83 0.57634165707166429 3 3542 5 3643 9 1474 6 4637 2 5954 1 4438 7 4554 8 6185
22690 -0.12947995173361471 -0.055655652978979772 3.0298366582232985 99 102 83 0.61069706407952251 3 3541 5 3644 6 4638 2 4536 1 4439 7 4553 4 4578 8 4636
22696 -0.1294800006450797 -0.055655763726157742 3.0298376868077281 9 15 1 0.97191253619803875 3 2531 5 2622 9 2384 6 4672 2 4566 1 10262 7 4589 8 8014
22698 -0.12948002503494765 -0.055655949444889566 3.0298364311307417 4 3 0 0.62243873882752843 3 5884 5 2643 9 2396 6 4687 8 11069 2 8563
22699 -0.12948002276338855 -0.055655932598154864 3.02983671820175 7 8 0 0.32813492632745028 3 3593 9 3331 6 4688 5 3682
22700 -0.12948003971565486 -0.05565593595211471 3.0298366640372505 7 8 0 0.49623238264772607 3 2547 5 3683 9 3332 6 4689 2 4585 7 4603 8 4698
22702 -0.12948003991866525 -0.055656008090796433 3.0298375204608035 89 93 76 0.32651106827249748 3 4435 5 4644 9 3337 6 4701
22703 -0.12948005925598977 -0.055656131375363599 3.0298357323477507 70 74 60 0.67587836641141097 3 4444 5 3699 6 4703 2 10524 1 10331
22704 -0.12948007293526154 -0.055656107709805169 3.0298364621955134 61 62 49 0.48985255368250269 5 4649 9 3344 6 4706 4 10861
22705 -0.12948004027582877 -0.055656086380481445 3.029837541903432 1 6 0 0.52253792455328563 5 2685 9 2435 6 4710 3 3614 1 4530 7 10871 4 10870
22706 -0.12948005613749308 -0.055656183800536649 3.0298363639582888 51 55 38 1.0712976242198422 5 4668 9 1432 6 4724 2 6142 1 4546 7 10883 8 11122
22707 -0.12948007643177578 -0.055656143070723738 3.0298389308283826 15 20 3 0.3961901612233914 9 3353 6 4732 1 6103 7 6180 4 6212
22708 -0.12948006746668217 -0.055656138186052737 3.029838968785918 15 20 3 0.48134899391802499 3 2599 5 2718 9 2463 6 4733 2 4624 7 4647 1 4551
22709 -0.12948007740011069 -0.055656128401081112 3.0298391664357389 66 73 56 1.3167332403980245 5 6280 9 3356 6 4734 3 7137 9 7806
22710 -0.12948014758585746 -0.05565617793940604 3.0298377585946308 92 97 75 0.479727909817735 3 4465 5 4676 9 4152 6 4736 2 10560 1 4906 7 10897 4 10897 8 11131
22711 -0.12948008380343307 -0.055656258792187732 3.029837495153278 93 97 83 0.45234276644015886 3 3629 5 3720 9 3364 6 4749 2 4636 1 4561
22712 -0.1294801028752946 -0.055656272391907929 3.0298376049234803 8 14 0 0.35984504846267096 3 3634 5 3721 9 1431 6 4750 2 4638 1 6135 7 6216 4 4676 8 4744
22713 -0.12948008556452545 -0.0556562709027415 3.0298376691992721 8 14 0 0.35433333771937958 3 3633 5 3722 9 1430 6 4751 2 4637 1 4567 7 4657
22714 -0.12948007319925164 -0.055656285185085211 3.0298373589993952 13 19 7 0.76336367259680238 3 3632 5 3724 9 3367 6 4753 2 4640 1 4565
22717 -0.12948015608677177 -0.055656330282245939 3.0298388677209491 115 119 102 0.18951056896889185 3 8687 5 6348 9 5656 6 4766
22718 -0.1294800960096279 -0.055656516864078284 3.0298365459901757 69 73 52 0.29938866777836848 3 4524 5 4020 9 3392 6 4788
22720 -0.12948016890953756 -0.055656573290508715 3.0298368116559971 70 76 65 0.31895969155227927 3 2695 6 4794 9 2010
22721 -0.1294801496238786 -0.055656590333635333 3.0298357053910481 77 81 65 0.95815979538838214 3 3260 5 1475 6 4802 9 827 1 1417 2 2164 7 1440 4 4723
22722 -0.12948017985670901 -0.055656629522601822 3.0298360936041382 100 104 88 0.49965259690006103 3 4546 5 6482 9 2569 6 4804 2 4692 1 4608 7 4706 4 4725 8 7599
22724 -0.129480195035649 -0.055656742429127701 3.0298359701809598 75 80 59 0.40114112463238838 3 6262 5 3765 9 1984 6 4819 2 4715
22725 -0.12948015756400577 -0.055656745270354829 3.0298354118514075 11 18 0 0.29132280059757903 5 4116 6 4828 7 4738
22727 -0.12948020108144231 -0.055656888862003623 3.0298374931394227 11 18 0 0.0096465222203887084 9 3427 6 4839
22729 -0.12948019612832146 -0.055656962485955613 3.0298374203157112 87 95 74 0.63765468585950691 9 1399 6 4850 2 4740 7 4753 4 4775 8 6654
22733 -0.12948042618175676 -0.055657443161950454 3.0298369544287516 105 108 81 1.1852408671333448 5 2303 9 1904 6 4923 2 4813 7 4824 8 4894
22734 -0.12948025339504632 -0.055657279583126357 3.0298356139286602 2 8 0 0.30575512343027089 3 3729 5 2997 9 1901 6 4924 1 4727
22735 -0.1294802583048093 -0.055657338019993716 3.0298358874431788 15 22 6 0.79406168521252973 3 6508 9 2770 6 4927 2 6187 1 4732 7 6638 4 11130 8 4896
22736 -0.12948037786441541 -0.055657739135097598 3.0298387855742694 99 98 67 0.4877654124718791 3 6509 5 4891 9 4383 6 4930 2 9294 1 9193 7 9588 4 9563 8 9763
22738 -0.12948022094025474 -0.055657356720582973 3.0298356670043618 84 92 69 0.83403356913819793 3 4675 5 3840 6 4934 2 6637 1 3771 7 3897 4 6676
22739 -0.12948026251896577 -0.055657332250395319 3.0298355425040402 84 92 69 0.40949347544579506 3 4676 6 4935 8 11354
22740 -0.12948020508167707 -0.055657377804432542 3.0298350308564643 98 105 69 0.73693221955483124 3 6576 5 6850 6 4940 2 9344 1 6652 7 9990 4 9625
22741 -0.12948022330287084 -0.055657366576812806 3.0298349803328555 98 105 69 0.49640788679422621 3 4696 5 4914 6 4941 7 8351
22743 -0.12948025965362708 -0.055657477575231568 3.0298347957929685 71 79 57 0.95571777813521219 3 3758 6 4966 2 6733 1 3034 7 3080
22744 -0.12948026239419341 -0.055657476070522807 3.0298347873861653 71 79 57 0.81482017125994999 3 3759 6 4967 5 3098 2 4859 1 3790 7 3917
22745 -0.12948023102777395 -0.055657722418269814 3.0298353946327441 11 18 0 0.72207298199542369 3 2995 6 4988 2 6778 4 6820 8 4948
22746 -0.12948016186304961 -0.055657768130040308 3.0298350380552637 36 37 0 1.0449932954476056 3 4753 6 4998 2 10854 1 10663 7 11188 4 11213 8 11435
22747 -0.12948033688322691 -0.055657686943592452 3.029834566449281 131 132 88 1.0172226099476265 3 4756 6 5002 1 6759 2 4891 7 6819 4 9807 8 4969
22749 -0.1294844248390763 -0.05565532459437858 3.0298340637880932 109 93 45 0.20153269257630613 5 4463 9 3231 6 5093
22750 -0.12947975352322283 -0.055655016589005055 3.0298363505400894 22 12 1 0.69415352219611404 3 4274 6 5094 7 4469
22751 -0.12947986565315128 -0.055655075626333747 3.0298360487343805 22 12 1 0.60194429128926052 3 4273 5 4125 6 5096 8 10925
22752 -0.12948005728431106 -0.055656420788445876 3.0298363235642247 24 29 9 0.50824010624978433 3 6099 6 5102 5 4716 2 10595
22753 -0.12948278017000009 -0.055655309066625816 3.0298310212515887 89 74 55 0.47301221688958262 3 2290 6 5343 2 7725 1 9965
22754 -0.12948275648581659 -0.055655300039864991 3.0298310580282322 88 73 52 0.40878384614628882 3 2301 6 5355 2 7705 1 5225
22755 -0.12948290265149798 -0.055655299062862637 3.0298310546549891 75 64 46 1.1001683581517834 3 2303 6 5361 2 5360 1 2428
22756 -0.12948228468579009 -0.055655309019228397 3.0298310751861655 124 115 99 1.1647579515805366 3 2300 6 5370 2 5365
22757 -0.12948282406970618 -0.055655308057733027 3.0298310591149344 160 148 132 0.43310824526392983 3 2310 6 5376 2 5364 1 5232 7 5453 4 2613
22758 -0.12948272102987246 -0.055655301025615361 3.0298310818395722 137 123 102 0.14872538501013507 3 2312 6 5378 2 7699 1 7577
22759 -0.1294832868121461 -0.055655249920215033 3.0298311469999768 142 132 120 1.9909503420879122 3 1606 6 5384 7 10490
22760 -0.1294832994860618 -0.055655262434196592 3.0298311284982713 144 135 120 0.86955202272303411 3 3356 6 5390 7 5459
22761 -0.12948295615655148 -0.055655306534902138 3.0298310792123653 137 120 100 0.35141482630720572 3 4934 6 5396 2 7682
22762 -0.12948297685876692 -0.055655320843332093 3.0298310511458992 127 112 91 0.75302078403798789 3 2325 6 5398 2 7680 7 8631 4 8583
22763 -0.12948331198994828 -0.055655237111594646 3.029831187417471 107 98 83 1.3174585195788482 3 2341 6 5399
22764 -0.12948294566701318 -0.055655303436779102 3.0298311080725728 146 133 114 0.30894848452777501 3 4948 6 5411 1 7558
22765 -0.12948212344122689 -0.055655302013214572 3.0298311557105766 78 66 51 0.4649662674599585 3 2333 6 5416 2 5388 1 7556 4 8581
22766 -0.12948295889566352 -0.05565532389758876 3.0298310859898145 151 136 117 0.56695712403032805 3 2348 6 5423 2 5394 1 7548
22767 -0.12948212455821845 -0.055655320141613188 3.0298311439925936 157 145 131 0.51578667498305586 3 4961 6 5427 2 7652 1 5257 7 5473 4 8568
22768 -0.12948242641851837 -0.055655305502670324 3.0298311916306475 178 166 152 0.26850621919434992 3 4988 6 5447 2 7639 8 11685
22769 -0.12948196246094124 -0.055655313762056707 3.029831183773684 70 57 41 0.59697741580998309 3 4974 6 5448 2 7641 7 8607 1 5269 4 10532
22770 -0.12948292212509238 -0.055655319049284835 3.0298311648688854 96 80 64 0.52626653171130022 3 2372 6 5460 2 5417 7 7289 4 8549
22771 -0.1294826100107363 -0.055655310531674523 3.0298312131230678 102 89 72 0.27744086537418577 3 2374 6 5470 2 7620
22772 -0.12948294664785676 -0.055655377652973931 3.0298310927335992 97 82 61 1.3890918527495215 3 5044 2 2935 1 5301
22773 -0.12948242771726565 -0.055655298468719264 3.0298312608753664 94 82 68 0.99654197098975505 3 1630 6 5483 2 7612
22774 -0.12948232817411653 -0.055655316563929025 3.0298312488199204 158 148 136 0.46088343014737865 3 2384 6 5490 2 5434 4 8537
22775 -0.12948190726819681 -0.055655343402910826 3.0298312108920769 162 150 133 0.52310789720552164 3 2382 6 5497 2 4344 1 4229
22776 -0.12948196109594973 -0.055655311780751796 3.0298312800366842 98 89 72 0.8934847564503402 3 2393 6 5500 2 7590 1 7499 7 5500
22777 -0.12948250568629899 -0.055655314384457838 3.0298312586299629 106 94 80 0.7117441907071187 3 2396 6 5501 2 5437 1 7500 7 8567
22778 -0.12948169376614205 -0.055655318496293224 3.0298312996419363 93 86 70 0.74609823239279904 3 5060 6 5517 1 5308
22779 -0.12948215724176948 -0.055655320577289211 3.0298312926137707 138 129 114 0.40593084995147583 3 4094 6 5520 2 7576
22780 -0.12948240763408797 -0.055655317516558625 3.0298313012523899 157 145 131 0.37841729093800253 3 2412 6 5525 2 7570 1 7475 7 8543 4 8523
22781 -0.12948288477688669 -0.055655318668669823 3.0298313096664442 132 117 96 0.80932091339891787 3 2429 6 5541 2 5458 1 7465 7 8522 8 8590 4 3041
22782 -0.1294821628324706 -0.055655320788240689 3.0298313393983776 125 115 103 0.35952765742071963 3 3388 6 5543 2 5461 1 7460
22783 -0.12948201437630952 -0.055655329239968687 3.0298314069821157 89 80 63 0.26834887639594918 5 2370 6 5577
22784 -0.12948244795748576 -0.055655295376253106 3.0298315290429501 113 101 85 0.67049553372176884 3 2443 6 5604 2 5505
22785 -0.1294817877614412 -0.055655308089398517 3.0298315318031208 68 68 68 0.1166636101085349 5 10099 6 5611
22786 -0.12948187564819158 -0.055655332307855146 3.0298314800964392 83 71 57 0.67286913367261114 3 5184 6 5615 2 7500
22788 -0.12948248712059818 -0.055655287233016396 3.0298316745928706 140 128 114 0.33800166382674268 3 2469 6 5650 2 7466 1 8414
22789 -0.12948259750451946 -0.055655286337852647 3.0298316783039461 107 94 78 0.50765006703143001 5 4013 6 5651 2 7464
22790 -0.12948165378428134 -0.055655313817787697 3.0298316969722263 119 107 91 1.1520519471586417 3 5252 6 5671 7 11153
22791 -0.12948300241661886 -0.055655311213529665 3.0298317113256257 134 119 98 0.37315260152331903 3 5269 6 5679 2 9930
22792 -0.12948372957894905 -0.055655177265148389 3.0298320133760304 128 116 94 0.48634346248168586 3 2484 6 5682 1 5400 7 8441 4 10564
22793 -0.12948215165763172 -0.055655294638115943 3.029831807696703 86 74 58 0.72039562188186002 5 1723 6 5684 1 7392 7 8445
22794 -0.12948354948677449 -0.055655217227322154 3.0298320641959253 132 119 100 0.38810034906588059 3 2501 6 5706 2 5567
22795 -0.12948342690917958 -0.055655211053552409 3.0298321055505468 111 98 81 0.58318960456981395 3 2503 5 2534 6 5707 9 1626 2 5569 4 5642 1 2563 7 4117
22796 -0.12948348349027056 -0.055655200976564484 3.029832301373196 157 146 126 0.5119720802633172 5 2552 6 5737 9 2318 2 5590
22797 -0.12948169869036225 -0.055655316709259328 3.0298320948185955 90 81 66 0.4171955178936772 3 5336 6 5745 7 10572
22798 -0.12948361157427157 -0.055655182443895848 3.0298324101592762 163 152 130 0.31078240347323699 5 1747 6 5747 2 5597
22800 -0.12948176135363876 -0.055655333435469689 3.0298321302199316 114 107 97 0.36029891086607108 3 3982 6 5754 1 7323 7 8364 8 8452
22801 -0.12948203793843882 -0.055655259663064449 3.0298323549765627 93 81 65 0.58103650142717223 6 5756 2 4156 3 2866 9 1643
22802 -0.12948291127751382 -0.05565527190830924 3.0298323068994035 122 111 93 0.17897477315320917 3 3428 6 5757
22803 -0.12948316989299824 -0.055655242615180109 3.0298323870049799 102 92 80 0.36554636537484214 3 3016 6 5761 2 5610
22804 -0.12948322716841543 -0.055655229596553488 3.0298324860587211 154 139 118 0.45158404871105684 3 3033 6 5774 2 5617 9 929 1 5479 7 5647 4 5678 8 8454
22805 -0.12948338348388289 -0.055655205687050513 3.029832563102377 128 116 94 0.72363970009221568 3 3046 5 2854 6 5776 7 8350 2 5619
22806 -0.12948328420236788 -0.055655213878806051 3.0298325733361571 148 133 114 0.58948265730044536 9 3189 6 5781 2 5620
22807 -0.12948310749556352 -0.055655260150018759 3.02983254753621 132 122 104 0.40565855492221009 3 3087 5 5578 6 5793
22808 -0.12948188464058574 -0.055655295520950415 3.0298324754423618 38 28 18 0.79384843839439778 3 5395 6 5797 5 5570 1 7294
22809 -0.12948403472464531 -0.055655113538366066 3.0298329996430762 154 139 120 1.2823954406919673 5 3169 6 5799 7 8323
22810 -0.12948165170661041 -0.055655300437011654 3.0298325218601772 85 73 58 0.52546472831962499 5 3161 9 2562 6 5805
22811 -0.12948190101888363 -0.055655274221055706 3.0298326292833844 96 88 77 0.58330403126306363 5 3165 6 5806 9 4839
22812 -0.12948301567745324 -0.055655262618275303 3.0298327389802235 149 133 110 0.60489101937824896 5 3175 9 1671 6 5825
22813 -0.12948331088016724 -0.055655160804591319 3.0298331399177973 128 111 91 0.54424064321782628 5 5627 6 5830 2 7297
22814 -0.12948304717964831 -0.055655262880860271 3.0298329644254198 113 95 69 0.37993029029277009 5 3197 9 1685 6 5847 7 8292
22815 -0.12948177115318854 -0.055655294364923225 3.0298329987375783 103 93 82 0.54071773365404319 3 7837 6 5859 1 7256 7 8287
22816 -0.12948229325123206 -0.055655208797391928 3.0298333712772481 119 108 90 0.28150540254761952 3 5456 5 3544 6 5864
22817 -0.1294809794668389 -0.055655192388106081 3.0298335792385869 83 77 63 0.51849485469334167 5 5685 9 1706 6 5875 3 5463
22819 -0.1294820710185422 -0.055655242972442134 3.0298334774695235 146 133 116 0.030799442989291867 5 3228 6 5882
22820 -0.12948267082810072 -0.055655228266388218 3.0298335449976279 158 145 126 0.54496697713590214 5 3235 6 5886 9 3211
22821 -0.12948169225795142 -0.0556550322139997 3.029834453666433 62 52 44 1.6910763270877016 5 5726 4 8297 1 5560 2 5690 7 5721 6 5891
22822 -0.1294810824624934 -0.055655200917710895 3.0298337483836866 119 111 100 0.35591367753723202 9 2950 6 5893
22823 -0.1294831237507087 -0.055655270835073281 3.0298335106024368 79 66 49 1.1534452128823027 5 5715 6 5898 2 5699 8 8378
22824 -0.12948093351200446 -0.055655207113841768 3.0298338954886725 105 103 90 0.23859648062048602 5 3248 9 1721 6 5906
22825 -0.12948288874704372 -0.055655244834458495 3.0298337539562969 162 147 126 0.47310780812005854 5 5740 6 5907 7 8237 4 8282
22827 -0.12948201120291475 -0.055655287539144338 3.0298337584126185 116 104 82 0.44577550731438048 3 4244 5 3261 9 1518 6 5916
22828 -0.12948387553499979 -0.055655163318279757 3.0298342690180737 180 165 144 0.21149543870228529 5 3273 9 2172 6 5922
22829 -0.12948184166334126 -0.0556552796744616 3.0298338684310719 30 22 23 1.1292878348345814 3 5524 6 5924 8 5916
22830 -0.12948202881849669 -0.055655282039713372 3.0298338447227096 146 135 115 1.9939561015207115 5 5758 9 1732 6 5928
22831 -0.12948242653409858 -0.055655213523934169 3.0298341946762446 120 108 92 0.77279954044957255 3 5526 9 2980 6 5929
22832 -0.12948224445213491 -0.055655199474363204 3.0298343989488612 121 109 93 0.87264141441354071 5 3568 6 5941 9 2990 2 10341 1 7188 7 8219
22834 -0.12948096224737154 -0.055655193424224231 3.0298345937745741 74 69 63 0.88906096164325399 9 5061 6 5955 5 5789 2 4442 8 4504
22835 -0.1294803999861453 -0.055655166549911053 3.0298347660814917 65 64 60 0.85127064831047561 5 4045 6 5958 3 5541 2 5737 8 11132
22836 -0.12948090675271445 -0.055655185816756977 3.0298346892306078 102 97 91 0.634870261374753 5 5800 6 5959
22837 -0.12948043392279251 -0.05565515156925796 3.0298348800050183 61 60 58 0.65284564517334409 3 3185 5 5802 6 5963 2 5741 1 5631
22838 -0.12948163031303656 -0.055655231461329738 3.0298347746515923 124 111 95 0.24175334747081734 3 5563 9 5087 6 5975
22839 -0.12948441250819404 -0.055655310163838109 3.0298344345571917 140 131 60 0.51096123441062014 5 3312 9 5091 6 5980 2 8259 1 5657 7 5797
22840 -0.12948182260781582 -0.055655327308422806 3.0298344268099706 158 123 103 0.4786219749300914 3 5571 5 3309 9 3017 6 5981 2 5761 1 5658 7 5787 4 5827
22842 -0.12948020762380036 -0.055655148430960158 3.029835348928585 31 25 18 0.34323183827962661 3 3196 6 5983 5 1832
22843 -0.12948000055695397 -0.055654969328746515 3.0298363642598805 86 83 78 2.0649406484166963 5 5847 7 5789 2 4072 6 5987
22844 -0.12948431553130196 -0.055655063200404725 3.0298358418688358 163 148 119 0.77396325617800987 9 3028 6 5988
22845 -0.12948458492410153 -0.055655010951475903 3.0298361326699284 79 60 17 1.3070434557736703 3 5588 5 3314 9 1842 6 5989 2 5775 1 3219 7 3348
22846 -0.12947989280721034 -0.055655044789840263 3.0298360321187539 96 86 77 0.93747461117949293 3 4269 6 5990 5 5846 7 8169 1 8064 2 8254 4 10651
22847 -0.12947991842717993 -0.055655067750324264 3.0298360451420678 20 10 2 0.62262720150378803 3 5582 5 5852 6 5999
22848 -0.12948188556004853 -0.0556553697106804 3.0298345319261433 132 116 104 0.53335590687397594 3 7636 5 5854 9 5115 6 6003
22849 -0.12948007234740416 -0.055655028612076649 3.0298363431971564 38 30 19 0.75241003803631268 3 5591 6 6005 2 9701 7 8156 1 8070
22850 -0.12947991295826794 -0.055655015262140742 3.0298367896583565 16 8 0 0.51953778738262446 3 3987 6 6017 5 5874
22851 -0.12948477893261046 -0.055655047798956525 3.0298366369112881 82 63 7 0.2381299826210424 3 5616 5 5880 9 5150 6 6019
22852 -0.12948013609492015 -0.055654977266945432 3.0298372288712345 78 73 70 0.70997945437293541 3 5613 6 6028 9 3049 5 5879 2 5797 7 5824 4 3368
22853 -0.12948197903347058 -0.055655115192620522 3.0298362581291745 33 23 13 0.26803325904602732 9 3042 2 5793 4 8171
22856 -0.12948195037169702 -0.055655225580363912 3.0298361106626546 41 31 22 0.41634936127916317 9 3053 6 6043 1 5721 7 5848
22858 -0.12947965211920703 -0.05565509043963035 3.0298372413615966 6 6 0 0.67124291848385309 3 3236 5 3356 9 3061 6 6053 2 5827 1 5735 7 8112 4 8136
22859 -0.12947977053134802 -0.055655263941476601 3.0298363483870698 74 75 61 0.79348570986002187 3 3242 5 3357 6 6063 2 5832 1 5743 7 5869 4 5895 8 6045
22861 -0.12947974650740984 -0.055654948397216228 3.0298384371401275 13 5 0 0.84844678445334787 3 3245 5 3364 6 6067 9 3072 2 5833 1 4376 7 5867 4 4520 8 8240
22864 -0.12947979136530763 -0.055655275901899254 3.0298364028136953 8 8 0 0.67826291003278649 5 3600 6 6074 2 4485 8 4567
22865 -0.12947984061905765 -0.055655269736408969 3.0298364742840591 7 9 0 0.96061285505409821 3 5651 6 6075 2 8320 1 5749 7 8093 4 5900 8 8224
22866 -0.12947977962678342 -0.055655224504963532 3.0298367940379363 73 78 56 0.84567490543938995 3 3248 5 3366 9 2168 6 6076 2 8319 1 5750 7 8097
22867 -0.12947980860256986 -0.055655281608751758 3.0298364609037245 70 73 56 0.78415369985281058 3 5654 5 5906 6 6077 2 8321 1 8121 7 8088 4 8122 8 8220
22871 -0.12947975646723542 -0.055655237101429889 3.0298372129920126 65 68 50 0.34791794320759922 3 7552 5 5927 9 3678 6 6087
22873 -0.12948027029849524 -0.055655008403386136 3.0298389173659892 76 69 61 0.57150949812536855 3 3275 5 3390 9 3097 6 6091 2 5856
22874 -0.12948556126230532 -0.055655272262898209 3.0298371462808156 44 30 1 0.3425045575159823 3 7519 5 5952 9 5235 6 6095
22875 -0.12947986933709299 -0.055654921889430317 3.0298398658652803 26 20 6 0.81148889339747377 3 5687 5 4513 9 3260 6 6098 2 7759 4 4534 8 6071
22877 -0.12947983878760416 -0.055655376281698199 3.0298366069614757 16 21 0 0.70189886812190061 3 5682 5 5940 6 6105
22881 -0.12947966689397605 -0.055655116791523615 3.0298393085764088 68 72 49 0.70018752353055291 3 5715 5 3426 9 3115 6 6129 2 8374 1 8186 7 8037
22882 -0.12947982596254692 -0.055655467711345802 3.0298366274729021 13 16 0 1.2236239141220195 3 3520 5 1551 6 6132 2 8380 1 3360 1 5806 7 5933
22883 -0.12947983560443033 -0.05565549847849223 3.0298364703932235 81 84 62 0.45450479351218775 5 5980 6 6134 3 7487 9 5281 2 8390 4 8050
22885 -0.12947973776568533 -0.055655227655277362 3.0298388352657613 15 20 2 0.65032836237965186 3 3526 5 3625 9 2136 6 6137 2 5911 1 5815 7 10711 8 10972
22888 -0.12947989680852762 -0.055655515567426386 3.0298365526833013 89 93 70 0.79402218800634816 3 5726 5 5990 6 6145 9 2139 2 8399 1 5820 7 5949
22889 -0.12947979510905527 -0.055655169915688654 3.0298395580938706 60 59 41 0.76319106375314916 3 3311 5 6002 9 5304 6 6147 2 8404 1 10185 4 8045 8 8160
22892 -0.12947992652862994 -0.055655603509021503 3.0298361886729741 74 76 54 0.56475132748054246 3 5737 5 3753 6 6158 9 3127 2 5925 1 5843 7 5961
22893 -0.1294799653769953 -0.055655533612121263 3.0298369926384012 75 82 66 0.67312335557536773 5 3635 6 6162 2 8422 1 8231 7 7993 4 8014 8 10992
22897 -0.12947992265182856 -0.055655625603941591 3.0298368869389942 6 8 0 0.66957209948495777 3 5770 5 2311 9 3443 6 6187 2 10437 1 10221 7 7960
22898 -0.12947994003748631 -0.055655648863501758 3.0298366990428858 99 102 83 0.58264856181817981 3 3476 5 2305 9 2123 6 6188 2 4537 1 5873 7 5987 4 6022 8 4637
22903 -0.1294798955272714 -0.055655487094946374 3.0298385377329047 79 80 64 0.62604936301750824 3 5779 5 2373 9 5358 6 6195 2 5963 1 5877 7 5994 8 6182
22904 -0.12948002529300295 -0.055655798231271328 3.0298354166796186 87 90 72 0.64543298037401386 3 3695 6 6202 1 5885 7 5997 4 7961 8 8077
22905 -0.12947989890437495 -0.055655467931159788 3.0298393044935645 91 95 80 0.51420565987702216 5 2590 9 1465 6 6208 2 8477 7 6006 4 6030 8 6199
22906 -0.12947989092290679 -0.055655591204369165 3.0298380166172221 86 90 75 0.30107897177127463 5 6065 9 5372 6 6212 3 10274 4 7952
22909 -0.12948005979347449 -0.05565587451454615 3.0298353789791093 85 87 65 0.4951671841053491 3 2414 6 6230 1 9321 7 2638 4 2668 8 6235
22910 -0.12948175118309124 -0.055655972124072736 3.0298343668187129 12 7 3 1.0395413069693205 3 5819 9 2201 6 6233 5 2274 2 2626 1 2588 7 2648 8 6241
22911 -0.12947987787886373 -0.055655608373213011 3.0298387506080906 82 83 69 0.49999444319781905 3 5826 5 6098 9 5397 6 6235 2 8502 1 5922 7 10675 4 4600 8 11029
22912 -0.12947983662579016 -0.055655511151965917 3.0298400547086821 61 69 47 0.56626356711163783 3 2520 5 2611 9 2094 6 6237 2 6001 1 5919 4 6062 8 6228
22914 -0.12948171330740144 -0.05565598695908823 3.0298344385889924 76 73 64 1.7902914385539381 3 2519 5 3217 9 5387 6 6250 2 4140 1 5936 7 2652 4 1659 8 2281
22915 -0.1294800006450797 -0.055655763726157742 3.0298376868077281 9 15 1 0.97191253619803875 3 3578 5 3670 9 3322 6 6255 2 6009 1 8356 7 6049 8 11048
22918 -0.12947998883544709 -0.055655864482032538 3.0298365263111271 9 12 2 0.45459862174657112 3 2530 5 2621 9 2383 6 6262 2 10481 1 5957 7 10795 4 10792 8 7993
22919 -0.1294860197555624 -0.055655843426109644 3.0298371960992694 69 58 14 0.28385485429755919 3 5875 5 6157 9 2387 6 6265
22921 -0.12947982893726134 -0.055655662192450508 3.0298397518705156 8 12 0 0.83810469765165785 3 3586 5 4618 9 5439 6 6274 2 6027 1 5964 7 7855 4 7883
22922 -0.12948001028826278 -0.055655946990344707 3.0298364744219666 4 3 0 0.56126288338612307 3 4412 5 3681 9 3330 6 6294 7 7825 8 7955
22923 -0.1294800452319918 -0.05565593685694771 3.0298366474241649 7 8 0 0.48701160175745994 3 3594 5 2644 9 2397 6 6295 1 5986 2 6044 7 6081 4 6109 8 6289
22928 -0.12948001907958451 -0.055656002407969932 3.0298375939125934 89 93 76 0.45151384987585702 3 5941 5 6216 6 6335 9 2416 1 6026 7 6113 4 6145
22931 -0.12948004317742035 -0.055656131431677261 3.0298357767602115 70 74 60 0.44203457498552901 3 5959 5 2673 6 6349 2 8655
22932 -0.12948011840924079 -0.055656111980962597 3.029836316399138 61 62 49 0.8469431404573674 3 5961 5 6235 9 2428 6 6351 2 6104 1 2652 7 6132 4 7755 8 6348
22934 -0.12948003885367354 -0.055656157509657564 3.0298360323863176 10 15 0 0.78199358478281966 3 2583 6 6369 5 2689 9 2055 2 6122 1 6064 7 6151 4 6177
22935 -0.12948206769471721 -0.055656266739334548 3.0298340798959504 50 47 40 1.2454181511644986 9 5567 5 2708 7 10515 4 6211
22936 -0.12948008811379519 -0.055656131911927822 3.0298372039396471 53 58 51 0.94862084465061969 5 6260 6 6380 3 5981 9 5569
22937 -0.12948007687815771 -0.055656173474333354 3.0298360302421536 66 71 50 0.89996812005689686 3 2585 5 2696 9 2449 6 6385 2 6131 1 6074
22939 -0.12948005613749308 -0.055656183800536649 3.0298363639582888 51 55 38 1.0712976242198422 5 6270 6 6389 2 4621 9 2049 1 6090 7 7693 8 7840
22940 -0.1294800389550767 -0.055656128339983943 3.0298388290353158 88 92 75 0.61402651035746003 3 3619 5 6275 9 2460 6 6395 2 4622 1 4549 7 6173
22941 -0.12948006671798284 -0.055656139053065629 3.029838972567573 15 20 3 0.48535381703281227 5 3715 9 3354 6 6398 2 6156 1 4550 7 4648
22942 -0.12948014758585746 -0.05565617793940604 3.0298377585946308 92 97 75 0.479727909817735 3 6012 5 6289 9 5599 6 6402 2 8711 1 6650 7 7667 4 7703 8 7822
22947 -0.12948014196771246 -0.055656248554886392 3.0298366190562551 75 80 73 0.38920651959721247 3 6033 5 6308 6 6428 9 5617 2 6174 1 2689 7 6194 4 6224 8 7790
22948 -0.12948007508507042 -0.055656237056704583 3.0298370618098742 22 28 22 0.62452576004567129 3 6031 6 6429 9 7830 1 8583 2 8733 7 7648 4 7678 8 7788
22949 -0.1294800925104882 -0.055656243855676482 3.0298371570340228 97 103 93 0.36543292682211265 3 2615 5 2732 9 2485 6 6430 2 6178 1 6124 7 6197 4 6225 8 7787
22950 -0.12948007098840741 -0.055656222017068227 3.0298387918587273 67 71 56 0.55894162049986229 3 2618 5 2736 9 2488 6 6432 2 8746 1 6125 7 6202 4 10468
22951 -0.12948007444321913 -0.055656274054119839 3.0298363507145374 59 65 52 0.54520824911707244 3 6042 5 6314 9 2484 6 6435 2 8740 1 6130 7 6206 4 6235 8 6412
22953 -0.1294800964351171 -0.055656257063732825 3.0298374498583875 93 97 83 0.60004241443170281 3 2621 5 2735 9 2489 6 6438 2 6184 1 6126 7 6201 4 7671 8 7782
22954 -0.1294801028752946 -0.055656272391907929 3.0298376049234803 8 14 0 0.35984504846267096 3 2626 5 2739 9 2042 6 6443 2 6189 1 4566 7 4658 4 6242 8 6413
22955 -0.12948007108009479 -0.055656283907780948 3.0298373663021381 13 19 7 0.67321872305543329 3 2625 5 2742 9 2495 6 6446 2 6191 1 6134 7 6215 4 6244 8 6415
22957 -0.12948013815362963 -0.055656272095994067 3.029838652764488 6 10 0 0.59026076214508061 5 4088 9 2496 6 6450 2 8760 3 3892 1 6138 7 6220 4 7653 8 7766
22958 -0.12948004310182337 -0.05565630325330731 3.029836702691266 5 11 1 0.6096977944743085 3 6052 9 3715 6 6453 2 6196 7 6225
22959 -0.12948013634515088 -0.055656298470190838 3.0298379759853344 18 22 7 0.55763656499293079 3 6055 5 6336 9 5641 6 6454 2 8767 1 8612 7 7616 4 7644 8 7753
22960 -0.12948014307578831 -0.055656305841580267 3.0298367636909793 70 78 65 0.53573101849738247 3 2629 5 2747 6 6456 9 2494 2 6197 7 7617
22961 -0.12948016604126594 -0.055656335753931918 3.0298363864776778 93 99 85 0.71090994817861752 3 2634 5 2750 9 2500 6 6463 2 2741 1 6153 7 2766 4 2794 8 2782
22962 -0.12948015640587551 -0.055656330180193531 3.0298388650474752 115 119 102 0.2144631284123665 5 4703 9 4185 6 6468
22964 -0.12948016802810736 -0.055656394033847922 3.0298363526623833 11 20 1 0.73384496693494783 3 6085 5 6364 9 5672 6 6480 2 8806 1 6166 7 6250 4 7609 8 7711
22966 -0.12948015841637489 -0.055656410424741704 3.0298366742158458 93 100 84 0.53645305168128776 3 6101 5 2766 6 6490 2 8810 1 8674 7 7567 4 7595 8 7480
22969 -0.12948013491628402 -0.055656449919240278 3.0298353378813152 11 18 3 0.43470870139824308 3 2657 5 2776 6 6511 2 6252 1 6179 7 7537 4 7565 8 7673
22970 -0.1294801141303622 -0.055656449672223982 3.0298359989755017 87 91 73 1.2062782895510222 3 2658 9 2023 6 6516 7 10420 4 7577 1 8695
22971 -0.12948010537409849 -0.055656515852253383 3.0298365159379221 69 73 52 0.39663540751627635 3 6156 5 4086 6 6535 2 6280 1 6209 7 6291 4 6320 8 7645
22973 -0.12948012237559497 -0.0556565264188114 3.0298359500585499 4 9 0 0.16543286635215854 3 6159 5 6437 9 2552 6 6542
22974 -0.12948014522312568 -0.055656558362455588 3.0298372296638587 64 69 65 0.62743473408711825 3 2690 9 2555 6 6543 5 2797 2 8881 1 6218 7 6312 4 6330
22975 -0.1294801537924965 -0.055656563768344533 3.0298363890871896 7 10 0 0.72354060298838718 5 2802 9 2560 6 6546
22976 -0.12948017813531626 -0.055656571775215116 3.0298367804516353 70 76 65 0.36217292496105419 3 3657 9 1414 6 6549 8 6517
22977 -0.12948018897939334 -0.055656626031478668 3.0298383652998275 1 6 0 0.55718600614233493 9 5751 6 6553 4 7508
22978 -0.12948015780013677 -0.055656588423678183 3.0298356816333589 77 81 65 0.87033718346042477 3 2256 5 2177 6 6568 9 1101 1 2179 2 1463 7 2240
22979 -0.12948017392314531 -0.055656609163955595 3.0298360309716958 11 15 0 1.0995021354194892 3 6192 5 9078 6 6569 9 8071 7 6327 1 8788
22980 -0.12948017985670901 -0.055656629522601822 3.0298360936041382 100 104 88 0.49965259690006103 3 6199 5 4767 9 3401 6 6578 2 6336 1 6250 7 6335 4 6369 8 11219
22982 -0.12948020950658012 -0.055656713742055011 3.0298379688903014 97 104 86 0.32044535030210242 3 6212 5 2817 9 5789 6 6590 2 6348 1 6265 7 6345 4 6381
22984 -0.12948189313967545 -0.055656615633478429 3.0298346278034867 138 111 90 1.268483239650992 3 2718 5 2824 9 2583 6 6592 2 6358 1 6260 7 6347 4 6382 8 6556
22986 -0.12948023014563037 -0.055656761684648504 3.0298390215957949 0 3 0 0.40952734718798794 3 2711 5 2818 9 2581 6 6594 2 6350 1 6267 7 6349 4 6386 8 6563
22987 -0.12948015778046573 -0.055656644494877297 3.029835334808904 77 82 74 0.37482622640091873 3 6228 5 6500 6 6599 2 8956 1 8820 7 11402 4 7458 8 7581
22988 -0.12948191774836199 -0.055656660813735104 3.0298347333949649 191 153 117 0.63240135081771409 3 6244 5 4084 9 2590 6 6614 2 6376 1 6279
22989 -0.12948010181870229 -0.055656746471145255 3.0298366439677884 7 8 1 0.54006382172540679 3 2732 6 6619 5 2829 9 2595 2 6372 1 6289 7 6373 4 7433 8 4821
22990 -0.12948020305915608 -0.055656741633157078 3.0298359461766786 75 80 59 0.40606621832127043 3 4571 5 2837 9 1406 6 6624
22991 -0.12948011510033719 -0.055656717337187092 3.0298352870010237 81 87 75 0.99196391957162022 3 6263 5 6539 6 6627 2 8995 1 6310 7 7395 4 7418
22992 -0.12948014960788812 -0.055656791277701081 3.0298362802991101 50 53 41 0.61947002906331239 5 6546 6 6638 3 6270 9 5856 1 10499 2 4724 4 4757
22993 -0.12948015776266014 -0.055656745920605641 3.0298354113692398 11 18 0 0.29834480711633504 3 6274 5 4135 6 6641 7 6394
22994 -0.12948021636835266 -0.055656730163161541 3.029835026881861 6 13 2 0.64803887959321294 3 6277 6 6644 5 6550 2 9010 1 8877 7 6393 4 7409
22998 -0.12948016166096399 -0.055656902770318817 3.0298376383951497 11 18 0 0.46984567747879213 3 6289 5 2852 9 2619 6 6659 2 9042 1 6342 7 6410 4 6449
23000 -0.12948023422452232 -0.055657170567695452 3.0298358851556251 15 20 3 0.65330087334434905 3 6435 5 4062 9 3694 6 6663
