# 3D point list with one line of data per point:
#   POINT3D_ID, X, Y, Z, R, G, B, ERROR, TRACK[] as (IMAGE_ID, POINT2D_IDX)
# Number of points: 383, mean track length: 5.1124707823456621
25392 1.2399902933532518 -0.34623736678199701 17.86838851360876 1 1 0 0.71202476341779353 12 6737 11 7432 16 5219 18 1004
25394 1.6481362731580673 0.32324944901534686 15.85485923328811 6 10 0 0.92414279280697054 12 7693 11 7604 16 6391
25395 1.4639046145526329 0.35582992425005111 17.074175008587183 1 1 1 1.0880251945576604 12 7696 11 7611 16 5103 18 701
25396 1.7967291341896405 0.35944472756461809 15.394106910634507 76 80 67 0.11930724209986852 12 7704 11 7618 16 2492
25397 2.0147545034599954 0.33508105201693866 14.764327967488407 68 70 57 0.41616409320286624 12 7697 16 3076 15 715
25398 2.4067008275125463 0.33783104959365357 11.838235463520158 0 2 0 1.2757492971758262 12 6666 11 7633 16 7262
25399 2.0343483760823879 0.43723355222442989 14.764821395419821 4 5 1 0.30370579913936713 12 7734 11 7650 16 2485 15 1449
25400 2.0406363103767768 0.52830885995410926 14.52838859835864 2 3 2 0.78891415305080193 12 5977 11 7681 16 5075 15 4236
25401 -31.48188385949517 2.1279339197877634 56.176285410317291 180 207 166 2.6475320820497705 1 4144 11 7697
25402 -10.043309563640708 0.85705879594474188 16.361017700474857 162 148 87 0.18272649592014054 14 8224 11 7749 16 4995
25404 2.2049574286745734 1.0328893089279951 13.703789779062694 57 64 46 0.41865512885781292 12 6581 11 7848 16 2416 15 952
25405 -9.983483322970315 2.603225212474245 26.164988483578377 128 125 71 1.2904994871219078 12 8023 13 8209 11 7912 14 8376 16 4906 15 4041 17 2994 21 950 19 704 20 564
25406 2.2184568618986011 1.2549664775345697 13.968900756012484 68 70 54 0.42049547124315634 12 8026 11 7918 16 4913 15 1506
25408 -8.651881679653961 1.8191819374582405 14.46822814287073 131 122 83 0.41725589926527851 12 8119 11 8038 16 3742 15 1968 17 1789
25409 -8.7033303929860502 1.871555318117688 14.340986992348395 128 125 83 0.49778646231634516 12 8137 11 8052 16 4796 15 1960 17 1465
25410 1.8163690041181848 2.1571650477417394 16.400763479022071 80 83 72 1.1571653022824016 12 8178 11 8091 16 4787
25411 -8.4279500176219724 2.1174539323118609 14.308827120051108 25 13 0 0.85235385219698712 12 6457 11 8113 16 7854
25412 -9.0146859122501084 2.1569888293770609 14.2686818060028 5 0 1 0.66367328515033031 12 8211 11 8123 16 3370 15 1544
25413 2.2708327826904631 2.0183736971132089 14.181092994612706 0 2 0 0.51170889339058001 12 8232 11 8163 16 4725 15 1910
25414 -5.6151914177765647 3.9964000568101441 21.667578490109538 116 96 70 1.7729706920371238 8 9104 9 8532 16 4677 10 8567 15 1908 17 1742 18 8523 21 3963 22 4230 23 4176 19 4001 24 2643
25416 1.7494819935506076 2.9608313222240796 18.390579017983097 84 82 67 0.81356007242842132 12 8274 11 8211 16 3678
25417 -8.4595926111012716 2.5022644991220377 14.326115567463074 6 1 0 0.35431704747914905 12 8290 11 8226 16 2259 15 1864 17 821
25418 1.3086540497512085 3.4100307188380357 20.319929868292853 0 0 0 0.48728457083019044 12 8292 11 8228 14 8630
25419 2.2848467412941993 2.3398309512342532 14.697342051834092 50 54 40 0.69274467660626238 12 9428 11 8251 15 1764
25420 -9.0085022431433188 2.58354392692645 14.249443018564886 46 42 15 0.44965865664177485 12 9431 11 8254 16 4657
25421 -8.9230420206571743 2.6053808187977183 14.24384808105331 9 0 0 0.50057733258029558 12 8308 11 8261 16 4655
25422 -6.2887000438578706 3.9877961989758068 19.509255108504494 145 128 100 1.4773755519628253 12 8365 14 8708 11 8316 16 4633 15 1884 17 1834 18 654 21 858 19 470 22 507 20 379 23 516
25423 -29.388934912582734 -28.815634300419305 54.19167417442538 208 217 232 1.6385492252177658 14 7076 11 8364 17 9962
25424 2.4521219434446362 2.9325339761940463 14.807388286248147 37 43 29 0.89006926544569376 12 8435 11 8408 16 4565
25425 -28.627648699290944 -31.631997053895255 56.370723156791009 205 213 226 1.2141643270534113 2 7023 4 7187 5 7176 7 7045 11 8422 17 5401
25426 2.5819155289279783 2.6573838037713418 13.546865204672503 55 60 37 0.62814367886008515 12 8442 11 8429 16 2155
25427 -26.372618460094635 -31.756022325142137 54.727857586653471 212 218 234 1.7652955431839736 6 7622 11 8474 16 9038
25428 -7.4016371327939492 3.399189911307789 13.66348465769568 92 86 37 1.0942611329562049 12 8523 11 8499 16 8261 15 7217
25429 -7.26558867948523 3.3953389914226979 13.596791313549724 20 12 0 1.1180831102856619 12 8531 11 8502 16 4486 15 3659 17 7447
25430 -6.9696955465025106 3.439328256020739 13.65645571364545 45 33 3 0.78034306512945584 12 8538 11 8509 16 8278 15 7235 17 3404
25431 -1.8421590326390569 3.4726908412190238 13.592764945522839 64 52 38 2.0327701298408085 13 8681 11 8566 16 3561 15 786
25432 -1.2463636459867311 3.3385116541446269 13.040840504999998 40 32 29 0.47023604324254148 12 8604 11 8579 16 2223
25433 -5.2060700922718999 3.3974684918016798 12.529202686942837 136 121 98 0.73893003470683083 12 8612 11 8584 16 2366 15 844 17 407
25434 -5.8572428146445867 3.0382664398018528 11.014645515871376 129 115 67 0.39903386206349706 12 8630 11 8615 16 2578
25435 -5.8824163750231744 3.1343356716417152 11.127625865835068 30 13 3 2.034995967750977 12 8641 11 8631 16 2587 15 791 17 535
25436 -5.8992218456421481 2.7561917390683717 9.7275204756156235 94 82 51 0.39385842176184632 12 8667 11 8676 16 4299
25437 -5.3057561996106379 3.266568535130232 11.020215879191632 171 156 135 1.7505632950413927 12 8686 11 8695 15 819 16 1929
25438 2.6431294587899261 3.3165922728925787 12.65150010652976 9 0 0 1.9263729985490095 12 8679 11 8698 16 2606
25439 -4.0104748687936551 3.1837278541266523 10.710702496826341 165 150 131 2.4183663382261629 12 4671 11 8717 16 2380 15 444
25440 -1.6000867302871504 3.2567410547460098 11.189315658114321 102 93 81 0.88694055550096074 12 6235 11 8732 16 1937
25441 3.1507167020610485 2.8618879761320595 10.932350801655261 2 1 0 0.3510637210998353 12 8735 11 8768
25442 -0.55642484467302478 2.7398949201750993 9.646014526416284 60 49 39 0.80441211900421905 12 8750 11 8789 16 2753
25443 -0.28833731117521694 2.928679141743487 9.5953865147227368 98 89 74 0.59464460792316232 12 8828 11 8865 16 4150
25444 -4.9864976019364224 2.9554132289163424 8.5412081514497977 102 89 34 0.68365908211580673 12 8873 11 8905 16 2676
25446 0.014071948656661795 3.7430149494626153 9.2340876290570382 6 4 5 0.089644630050596211 14 9402 11 9237
25449 1.5346200996076804 3.8069529268532785 21.188087023238857 2 2 0 0.46512215427231673 12 9436 11 9405 14 7415
25450 2.2400795035058678 -1.471451798009104 12.169033028787149 2 4 0 1.7473792966499997 14 5713 11 1568 5 7012 9 7688 10 5613 13 3280 12 1438
25451 -54.286179107599594 -30.448651951927506 46.734448084818816 61 68 88 1.6410707643117057 2 4294 5 5973 8 4371 9 4323 4 6166 7 5916 14 4316 11 2259 6 6104 10 4265
25453 2.7632058083067736 -0.3187110671373139 10.278916899725875 0 0 0 2.0256197953780624 12 182 11 67
25455 1.3051042837442335 -1.1599200918317585 18.211070900689446 42 48 12 0.67630462641646272 12 450 14 440 11 228
25456 0.033322302543582663 1.5339520338300117 10.28973583657694 34 31 26 1.5555233812155238 13 906 11 316
25457 0.24040720461118625 1.9502051863199124 12.432555599716435 34 31 26 1.1895034883741236 5 624 11 327
25458 -0.46770587149544285 0.92666226667769414 5.8710467802733062 86 82 68 0.92608779863828827 12 8430 11 778
25463 -13.155863337118481 -28.202768236168314 54.233965265257829 4 18 11 1.0461765091908337 6 7654 11 6798 16 6544 15 5547 17 5683
25464 -0.51059731823928978 2.8737692592697082 7.7775835205303139 107 99 86 0.10505493108030742 12 9069 11 9211
25465 -8.8200029539065294 1.5452169491994461 14.71408141821947 120 113 61 0.50549854935919181 12 8062 11 7957 16 4868 15 4006 17 2703
25466 -5.4903488429607847 3.78699481938055 12.472539351495644 153 141 119 1.1236729669039396 12 11 16 9
25467 -13.63691569743602 9.6218921757378073 28.554735158037154 0 0 0 0.064157793602845181 7 18 12 12
25470 0.68613523970996426 1.7007846588607358 9.1780585117558839 0 0 0 0.75149496969249496 8 71 11 14
25472 2.548629345919764 3.7052878740601058 15.095570517318809 16 10 8 1.5221706472506675 11 76 12 108 16 34
25475 -1.9343905486210837 4.2428932614597468 18.689354625558408 31 24 14 2.3281319530554287 11 106 16 62 15 26
25477 1.7953624313593928 -12.991083424955772 43.692891962285252 223 230 246 2.0629357380535263 8 7958 16 75 7 7533
25478 -0.70154290469148584 2.1634730485605642 9.4915100737447613 86 80 68 1.8586271926594677 6 551 16 87 1 592 3 606
25481 -7.6753947677241179 2.4331089761517268 14.62534873935463 67 63 18 0.67374420432989535 11 98 16 104 15 63 17 66
25482 2.3382765942959711 2.912330266794493 15.175751256047111 3 2 1 0.56070432946044124 12 208 16 106
25483 -17.478828945781 10.12035053566885 28.09225557946138 106 91 52 1.1612205173265606 8 289 16 144
25484 13.277807887609933 -8.8461489664361537 45.594838828188095 43 45 9 1.8599888166291523 8 226 16 160
25485 1.6361189675032575 3.7540296156015107 15.16726237400159 0 0 0 0.73984851188992051 11 299 14 203
25487 -6.853431655270338 3.4651375110413336 17.461834422542726 74 47 26 1.4026487268236834 11 422 16 197 12 626 15 129 17 121 18 67
25488 -45.690883223474223 -17.487328114257831 78.136349799528318 254 254 255 1.9236239577455791 2 246 4 225 5 222 6 311 16 209
25491 -0.83472556609283222 1.3983260816545831 9.5033376840188808 96 92 81 1.8988523964297748 16 319 1 2195 18 41 4 2450 6 1894 5 2482
25492 -14.265378808624346 -24.21063905645088 79.114916990770098 182 189 206 0.260372691170002 16 322 9 1384
25493 -2.1566248400063337 3.676519483297144 16.611654087766937 113 96 78 1.7986069356139087 11 312 12 744 16 325 15 281 18 65
25494 -0.54619010479541219 -0.028248109575052957 9.4743971879355815 221 162 118 1.0571297080900863 10 2580 18 119
25496 -2.1566248400063337 3.676519483297144 16.611654087766937 113 96 78 1.7986069356139087 11 433 12 613 16 420 15 265 18 77
25497 -8.0565155670841779 3.1857281637525472 13.57027445990048 14 6 2 1.5187214661907305 11 567 16 439 15 127
25498 -0.19511938163060555 1.8241354930330218 9.5269392464751981 94 90 79 1.6702988847637437 7 5101 8 5251 16 570
25499 -1.6556822427912516 3.5168652837587948 15.575272051044468 36 32 23 1.2071802906410254 11 1054 16 582 15 412
25500 -7.0557382127439077 3.9565953029162979 18.830938994119418 174 156 126 1.519653032003361 11 1066 12 1176 16 589 18 146 21 127 22 134 19 132
25502 -36.273109061886267 -31.174298348535228 73.294197280092931 5 12 4 0.97763292139437341 11 1056 13 1429 16 613 15 660 17 581
25504 2.2818077459573791 1.1950146798958383 13.778506545757432 5 5 3 0.85642838084582795 12 1569 16 687 15 282
25507 -36.273109061886267 -31.174298348535228 73.294197280092931 5 12 4 0.97763292139437341 11 1274 13 1541 16 759 15 647 17 573
25509 -8.2705776317888429 42.460148995513478 71.132028439103806 97 89 78 2.1978442553095947 8 3026 16 786
25513 2.0797973030028531 -0.47943524736300269 13.523916571204291 57 61 35 0.76669251468155275 11 2771 16 829 15 578
25514 2.4268180271077373 0.26729181294056537 11.86182324744145 34 40 11 0.65914881479825216 11 1350 14 4140 16 850
25515 2.129266818747876 0.53445367306953639 13.531951927681106 77 82 41 0.29881298041665588 11 3083 16 860 15 589
25516 2.1761251029412358 0.8769411352374552 13.556514286844193 57 64 32 1.1583859463020536 11 3061 16 863 15 518
25517 -6.737577586249512 2.8572105710869211 16.660042732259637 26 16 7 1.1075337657783608 11 1537 16 887 12 3084 15 751 17 675 18 242 19 194 22 194 20 179
25518 -0.65259835150828849 2.9137629571662771 9.5367132166622692 143 116 105 1.6028303591647228 11 3545 16 959
25520 -0.72298018610027415 3.0832772254335721 10.312063214402158 12 9 4 1.1876192357707192 11 4500 16 976
25521 2.2878077005945885 3.227889540976554 16.061803948889889 44 47 17 1.2067676731888461 11 1848 16 1047 15 476
25522 -6.6203392060738038 3.2967889865349109 15.105867066400181 105 95 32 1.3465638552332797 11 1843 16 1049 15 477 17 427 18 250 21 184
25523 -7.6413649821114973 2.7783351274493207 14.245474122956159 118 115 62 0.5706840286793573 11 1700 16 1065 15 486 17 435
25524 -4.4406541356531983 3.3740609670409785 17.948576589177488 165 148 124 1.957130085062347 2 3982 5 3992 8 3232 1 4024 3 3898 4 4031 6 4168 7 3934 17 520
25525 -6.7504483159901989 2.8601612471164626 16.68247260644161 26 16 7 0.9561816604787845 11 1527 12 3085 16 1081 15 752 17 674 18 240 19 195 22 190
25526 2.0932499445656036 1.8257826713472396 14.492391186552643 64 69 37 0.44231777199900385 11 1473 16 1103 15 501
25527 -1.0859957618570182 0.92614003062359362 9.099228500926932 94 93 89 0.77254994450266778 16 1105 15 275
25528 -0.6604642672240193 4.8439877090595225 36.204098776115195 5 6 1 1.2152478586446118 7 8543 8 8974 9 5172 16 1108 5 8921 10 5117 15 936
25529 -9.7560930378450301 1.6173412188343932 23.037691180632891 103 83 33 1.5495916458844503 11 1734 12 1825 16 1137 18 226 21 176 19 150 22 125 20 120
25530 2.1249257900687963 0.60761510707881372 13.974755422485542 85 90 49 0.43261971139617844 11 2444 16 1152 15 523
25531 -0.48018479777504414 0.3608807927684049 9.3775827426672791 35 16 18 1.2454944282872407 11 5226 12 7782 21 382 19 399 22 583 20 596 23 615
25536 2.0754948066700605 -0.61670920283522079 13.558935148545304 0 0 0 0.36475048745326144 11 1633 16 1215 15 580
25543 19.198471549773814 -14.903253565410491 47.096870930262547 36 17 11 1.5761733404469014 11 1368 12 3336 16 1296
25544 17.153011807509685 -15.453993602766557 42.055008090670562 2 1 0 0.87086208483557359 12 1380 16 1316 15 658
25546 -40.169709308001828 -23.561785637358312 69.141500634789679 17 22 25 1.1349640673252221 14 7404 16 1346 13 5855
25548 -52.378414555328199 -15.045617025647925 46.371258517599827 105 82 79 0.8329429403129005 2 3365 3 4188 16 1357 1 3391 4 3402
25549 -8.2114975857781509 2.8221288484321301 14.526428928741476 5 1 0 0.3894583189716459 11 2963 16 1368 17 1644
25550 -9.2160061861092402 1.6318725592512202 14.601635282478856 60 43 13 0.87157670093414474 11 3030 16 1455 15 1852
25551 -8.0693784990423332 1.8312906335192431 15.246167118876901 6 3 0 0.33295244094581528 11 5036 12 8102 16 1461
25553 1.6457415736323548 2.8107956098212679 18.070703174681356 3 2 0 1.5564572617042229 12 3913 14 6609 18 455
25554 -8.0723248214585137 2.2681630567787678 14.585702124648195 2 2 3 1.5465112323080792 4 8765 16 1471 1 8752 2 8494 6 4137 15 749 17 519
25555 -9.0117299271523201 2.3136422988722902 14.052370836707867 90 86 39 0.355435885960385 11 2987 16 1475 15 753
25556 2.1258628713932612 2.3734833300015143 15.039956901210378 55 61 33 0.99197679509948544 11 2979 16 1479 15 759
25557 -9.0796753559864722 2.3737248617295079 13.979091507260653 8 5 0 0.62509589261896492 11 3367 16 1480 15 755 17 677
25558 17.657467447205793 -16.982085867819386 44.171609634251055 9 5 1 0.93883755980689243 11 2409 12 5849 16 1489 15 1124
25559 -31.732514928778212 -30.720107394761207 59.823846690236827 9 12 17 0.75626585478198471 6 6068 16 1492 17 1184
25560 -40.054185390559347 -24.145588709232655 66.389572950599671 0 0 0 0.84649393160512398 2 3507 4 3525 11 1520
25563 2.3460248623608839 2.4592640576994667 14.281022470605059 5 8 1 1.1158883554120003 11 2959 16 1565 15 763
25565 2.0844835582739769 -0.81471285113596237 12.839815906225221 5 8 1 0.82248777757441449 11 7239 16 1577 15 1052
25569 1.6583084121069873 -0.76020559375367058 14.961514359487722 75 80 48 0.61177534244450715 12 5939 16 1602 14 7850 15 1042
25570 1.7727768686614855 -0.42201452314413401 14.827076728369567 2 2 0 0.2538008585823136 11 5394 16 1618 15 1020
25572 2.3334070309414088 0.46675375533209407 13.122344691811515 0 0 1 1.1074897151794942 11 5234 16 1675 15 984
25574 1.9581740516019825 0.73441668521546655 14.706520492061028 1 1 0 0.75343982252233799 11 2436 16 1700 15 720
25576 2.3640437789520758 0.7440378792465846 12.568728125429873 2 2 0 0.67239517210408384 11 3422 12 7869 16 1708
25577 -7.2087635366489744 1.5210423119685152 17.423098410654291 68 53 20 1.9651824720194229 11 2352 12 5189 16 1743 15 1499 17 868 18 400 21 278 19 292 22 317 20 309 8 8806 23 311
25578 -9.6756483678402976 3.3445020352137451 25.89032025403673 13 7 3 0.7779866536596326 12 3961 14 4022 16 1763 13 3906
25579 -8.0437679771253165 1.8218653095781137 15.20343938072539 6 3 0 0.51875692864710099 11 3836 12 6515 16 1766 15 933 17 451
25580 -7.827787469011211 3.1411983289605963 20.063773029325748 39 27 5 1.4811418449958218 12 5019 16 1780 18 262 21 269 19 277 22 299 20 288
25581 -4.8980460444511191 4.2584078834501247 25.573720859447342 159 143 120 1.0191138217797566 9 5112 16 1783 17 1472 21 267
25583 -9.0117299271523201 2.3136422988722902 14.052370836707867 90 86 39 0.355435885960385 11 2241 16 1791 15 912
25584 -9.0074380870487527 2.3897174812246229 14.190901888615331 2 0 1 1.566851377067219 11 2235 16 1796 15 1865 17 1501
25585 -9.0796753559864722 2.3737248617295079 13.979091507260653 8 5 0 0.62509589261896492 11 3340 16 1798 15 910 17 825
25586 -3.8345655866210855 4.0541545004704851 21.188649702344787 149 134 113 1.6986448428642782 9 8556 13 5030 14 7362 16 1808 15 1563 18 416 21 204 20 280 19 271 22 288 23 284
25587 2.4880360883031489 2.2533373144675739 13.715704550849273 1 1 1 1.4757094365614887 11 4866 16 1821 15 483
25588 -5.5485654287282689 3.7206130452758104 16.528398573149865 179 162 135 0.57174142579229226 11 4767 12 2316 16 1845 15 1599 17 1539
25589 -8.311529700304364 3.2400618436402056 14.039898591699766 19 10 5 1.3969517640444593 14 4982 16 1853 13 4949 15 879 17 424
25590 -0.95775570607003346 3.310845454971322 13.346437011060926 48 39 26 1.4082905017922525 11 2523 16 1892 15 787 17 591
25591 -7.0042570484194799 3.5543791314319289 13.078852190707167 28 12 3 0.91206738084312255 12 4751 16 1896 15 2331 17 2267
25592 2.8478000918830366 3.079403650297929 13.062301578964229 1 1 1 1.1933063496687002 14 7992 16 1900
25593 -5.5157839907816406 3.3176734677435169 11.451131383297914 153 141 119 1.3192398412725965 14 8979 16 1920 15 454 17 372
25594 -5.3786500699945652 3.3335986460848055 11.351120892332663 121 106 84 0.70799211867324408 11 3592 16 1925 15 822
25595 -1.4143645796074558 3.2039078290354959 11.004896579132266 69 59 47 0.81347028540958521 11 3577 16 1941
25596 -0.86980935047370733 3.3449011791874592 13.046405339858039 42 30 18 0.87800198889100112 11 2915 16 1944 15 843 17 406
25597 2.8478000918830366 3.079403650297929 13.062301578964229 1 1 1 1.1933063496687002 14 7125 16 1967
25598 -2.8584449891977499 3.1075938112998891 9.8963300600757869 128 116 100 0.93436518655687617 11 4489 12 8791 16 1976
25599 -1.8501283529575761 3.1589325615265835 10.045366168010705 75 65 55 1.5195532235452258 11 4480 14 3810 16 1983
25600 -1.63406927693421 3.0887766297840566 9.6177996886474464 105 97 86 0.48877165726292093 11 4440 16 1997
25601 -5.2358000622395862 3.2917689371652843 11.428459611780731 151 139 117 0.94944480917995278 12 3776 16 2024 15 793 17 723
25602 1.7809894170929803 1.5836654035213649 16.965191997936294 2 3 0 1.6635129017400148 11 7908 14 5259 16 2072
25603 -0.78733005924848032 1.4949601396145213 9.6055943257003218 93 90 83 0.60692619757437882 16 2081 15 7173 17 1584
25604 -4.1300525727016923 3.4233652826330525 13.468391564619589 79 68 52 0.13531449969453016 11 3371 12 4764 16 2090
25605 -6.348778690563682 3.4583510767256436 13.341713752377936 51 27 4 0.62690428800113085 11 3637 12 3815 16 2099 15 2305 17 2279
25606 -4.9751505957701534 3.5211821308346423 13.678246227022461 156 140 116 0.34289089429316938 11 4665 12 4762 16 2101 15 1805
25607 -6.2794464383847073 3.4287312921221891 13.39692002244109 122 108 37 1.7533717984859898 11 6235 12 8562 16 2106 15 1637 17 709
25608 -8.2049772274070687 3.3496094624917085 13.398878868239841 10 7 0 0.55075040137785591 11 4710 16 2115 15 1630 17 776
25609 -0.19826456318669913 1.7701719281798491 9.5434035523247847 81 82 76 1.3578437710872164 16 2118 21 454 18 6418
25610 -4.5780127596508091 3.6100244048250638 14.657169394136931 111 91 66 0.64937157567644488 11 4708 16 2119 15 1627 17 1567
25611 -6.5338802875132345 3.3788930870466034 13.856035216157476 150 140 53 1.7172407346235772 14 8849 16 2124 15 1626 17 1031 18 423
25612 2.7490877223903416 3.3366521445522341 14.117512796580121 82 81 54 0.71155208246917967 11 6227 16 2126 15 1811
25613 -3.9613251423221048 3.30110447785811 14.129838123399567 60 43 25 1.1525039995352921 14 8841 16 2138 13 8625 18 779
25614 -6.9325826522748804 3.2695340387119929 13.861379111778879 51 32 1 0.27993834968837245 12 8489 16 2140 15 1618 17 788
25615 2.4746371161773943 3.2038771216984911 14.951727742093256 58 63 39 0.93113289259911047 11 8473 16 2142 15 1797
25616 -1.3815749808541522 3.6571619829221302 16.042611184491847 67 55 39 1.5806710808127225 12 3825 16 2149 15 2506 17 2333
25617 -5.03406579671333 3.6882635503574788 15.645918672286227 125 108 88 1.0202398352776718 11 4734 12 4806 16 2150 15 1613 17 1554
25618 -7.3954944358873513 3.2426073864952589 14.790987657510239 97 91 56 1.4820760628615977 11 4785 12 8423 16 2176 15 1602 17 1541 18 434
25619 2.407298676846648 2.6561243752057999 14.486053321305773 73 76 46 1.8602739304586084 11 4813 16 2193 15 887
25620 -3.3117246395726054 3.9585199777912408 18.455705966278192 119 106 87 2.003230622138136 11 4802 12 4852 16 2195 15 1587 17 1530 18 399 21 443 22 284 19 449
25621 -8.0165618564165033 2.9423883335941099 14.337715740999608 89 88 32 1.9739882793690531 11 4824 12 8386 16 2197 15 766 17 689
25622 -5.0308941628578623 3.4674459698031388 12.983619789380473 131 116 90 0.52201941981206423 11 4633 16 2205 12 8601 15 1589 17 1598
25623 -1.8723409986615525 4.0727785125920306 19.370049533132203 78 66 52 1.5107674716094663 16 2206 17 1527 18 438 19 448 21 442
25624 -8.487966371673437 2.6286492449924945 13.573703858272937 104 99 70 0.54954360449462558 11 4858 16 2214 15 1971 17 1529
25625 -6.8750627897784211 3.3365136520601451 16.48079688591789 144 139 59 1.0275325717243597 12 3872 16 2216 15 1582 17 1521 18 440 21 300 19 328
25626 -7.0779852253143991 2.8942808838409642 14.829662583468103 129 122 76 0.72352802637049585 11 4851 12 4907 16 2219 15 1773 17 1648 18 591
25627 -7.6133390822197216 2.8400129530927947 14.816714578501951 4 1 0 0.30035590216875718 11 5827 16 2230 12 8335
25628 -8.3605676998065075 2.7428621226016499 14.333201691413574 9 1 0 0.82900070615690391 12 4918 16 2231 11 4869 15 1875 17 1520
25629 2.2067394394710647 2.4571390913348599 15.106915146203447 0 3 0 0.9801051382791689 11 3742 16 2251 15 1889
25630 2.3425701094292437 2.3255126543318307 14.620889932625671 1 1 0 0.79080662085729336 11 4897 16 2253 15 901
25631 -6.9956260167127153 2.6195423518679255 15.252057932793496 129 121 83 1.5461506252730863 11 8218 16 2264 15 2549 18 451 21 882 18 828
25632 -7.0406245535511962 -22.466947918639534 43.452361739276803 216 217 221 2.4356686458982728 5 5966 16 2270 15 2020
25633 -8.2090667337231391 2.4058596816307602 14.377030070234996 20 12 1 1.4500931266750694 11 8189 16 2273
25634 -8.125677823322107 2.2102566124478056 14.466120875131107 100 98 47 0.8968681128962317 11 8135 12 9420 16 2297 15 2561
25635 -0.51090901764265684 1.0471515864519194 9.2851879643455977 93 89 88 1.5664159470598824 16 2314 15 909 17 386 18 461 21 489 19 496 22 536 20 548 23 555 24 591 25 566 26 566 29 563 27 540 28 607
25636 -8.7800284296026465 3.5584957573243052 23.616737289669569 114 103 57 1.1840807691635764 14 5153 16 2317 17 844 23 293 24 222 25 202
25637 2.5098917197769799 1.6183203195908509 13.169351540127415 45 46 28 0.67584141624772398 11 4994 16 2318 15 917
25638 -6.6162909449486396 4.1593361646727107 28.876958227423263 169 152 124 2.030997547541824 9 3592 11 5001 12 2427 13 5118 14 5160 16 2330 1 5297 2 5170 4 5269 5 5260 7 5175 8 5304 10 5102 6 4147 3 8786 15 1523 17 1797 18 467 21 420 22 304 19 282 20 293
25640 -1.7666112741893114 5.2178450257453486 43.494086259772672 6 9 0 1.1225198631236857 6 6941 16 2368 1 6883 2 6618 3 6752 4 6768 15 2011 17 3804
25641 -8.1030895388897495 1.5171891112057416 14.870977247742521 124 115 61 0.7425077703478038 11 3857 12 5136 16 2375 15 1510 17 1169
25643 2.4599531087492474 1.1698947817703207 12.920752949600994 0 0 2 1.2706839129503853 11 5077 16 2383
25644 2.3658261998112824 1.1954414983860491 13.154146027833974 4 6 1 1.6458835756443395 11 6487 16 2384 15 728
25646 2.2356293250131429 1.0233292786089923 12.955677266862734 6 9 2 0.92172221580102354 11 5113 16 2398 15 1498
25647 2.0444853834127104 1.1450578958399049 14.282434693340486 62 65 46 0.62311520724506086 11 7878 16 2399 15 1497
25649 17.355874819725404 -15.990062982205325 42.204295982781531 91 86 55 0.69218375222642803 11 2411 12 3345 16 2407 15 2090
25650 -16.879000542384958 -29.054713776525393 58.972410560360991 5 15 12 0.88256127786462368 11 5770 12 5858 16 2408 15 2091 17 1949
25651 -14.625217002749068 -27.069006121724328 56.307584173233373 29 48 46 0.66786476566452513 11 5759 12 5854 16 2421 15 2093 17 1952
25652 2.3088309487736813 0.90415757296586052 13.200073000609846 0 2 1 2.4787569863262218 11 7820 16 2429 15 2629
25653 -0.029614435179270881 0.021669350809097838 25.651371407509092 57 66 47 1.984180735141138 13 6098 14 6842 16 2513 12 4072 15 1169 17 1132 20 483 23 211 24 291
25654 -0.60610879742675949 0.10378088107504245 9.3206692236209783 236 182 150 1.4122160198147162 11 7532 15 1392 17 505 18 607 21 626 19 569 22 603 20 613 23 635 26 712 27 616 29 637 28 675
25655 2.0591497847682465 -0.093126078896987805 13.676741282610156 0 3 0 0.91976293263477427 11 7461 16 2550 15 1398 17 929
25656 -0.44992067597430396 0.060888362393292789 9.3272713739862283 15 0 0 1.5038038426160616 11 7508 15 1018 17 544 18 1011 21 1071 19 1103 22 1159 20 1184 23 1172 26 1143 29 1155 27 1131 28 1248
25657 -0.67591674050109007 0.055478692419556531 9.4074340918721457 84 58 149 1.4017064112106252 11 5884 15 1225 18 613 21 634
25658 2.0012181409141068 -0.18639371378901942 14.31348959566704 1 1 1 1.2590303882698486 11 7437 16 2557 15 1396 17 628
25659 -4.968816104899374 3.3350154295083794 11.96276117315243 167 155 132 0.49274013561452601 11 8623 16 2569 15 1674
25660 -5.6149294886411649 3.1783754997442597 11.343611587400705 120 109 45 1.0134350705916713 11 8628 16 2583 15 790
25661 -4.6758860412701795 3.1956111023522986 10.470977093249989 116 103 84 0.90381762927956355 11 6153 16 2598 15 808
25662 -4.6758860412701795 3.1956111023522986 10.470977093249989 116 103 84 0.90381762927956355 11 8744 16 2611 15 802
25663 18.303375942399995 -18.927375421698866 50.200386430121206 166 174 191 0.59339123422130013 12 6906 16 2622 11 6827 15 2097
25664 -1.1055960109425984 3.1011507135342771 9.7291694042241321 96 86 73 0.76732730646809622 11 8873 16 2707
25665 -2.4562520823019263 3.044320047061162 9.5289415463507723 83 71 57 1.4687575352013189 11 4453 14 9112 16 2718
25666 -1.7549732125019866 3.1382080300621538 9.9900566971505391 94 86 75 0.84797462067975204 11 8840 16 2737
25667 -3.9046391649765964 3.0822881592483702 9.9010394484000788 134 122 108 1.0852495486305413 11 8781 16 2768
25668 1.0252333040246877 -0.67275389235329242 18.279550305391034 74 81 47 0.81040233974640086 11 5398 16 2776 18 619 17 1294
25669 2.7490877223903416 3.3366521445522341 14.117512796580121 82 81 54 0.71155208246917967 11 6226 16 2861 15 1657
25670 2.7490877223903416 3.3366521445522341 14.117512796580121 82 81 54 0.71155208246917967 11 8563 16 2862 15 1812
25671 2.5561145744476388 3.2076329311737388 14.66494678197113 48 52 36 0.64567192977080889 11 3649 16 2877 15 1800
25672 21.260774198580219 -16.372778907196412 50.10892083321162 137 138 143 0.9458521519946731 11 2427 16 2879 12 3214
25673 2.5122515010647168 3.0594612382356257 14.330511723797045 2 4 1 1.5605607965969068 11 6263 16 2880
25674 -6.9325826522748804 3.2695340387119929 13.861379111778879 51 32 1 0.27993834968837245 12 6327 16 2881 15 1791 17 702
25675 -1.3815749808541522 3.6571619829221302 16.042611184491847 67 55 39 1.5806710808127225 12 4805 16 2889 15 2257 17 2158
25676 -0.18472680312749754 1.5433713986955273 9.2914882994509895 3 0 0 2.0278846201039165 16 2891 18 601 21 823 20 727 23 929
25677 -6.773543345783243 3.1646199158429482 15.019248359935968 102 97 31 1.3723047487483782 11 3694 12 6366 16 2908 15 2151 17 2108 18 435 21 464
25678 -6.8750627897784211 3.3365136520601451 16.48079688591789 144 139 59 1.0275325717243597 12 4893 16 2921 15 1771 17 1641 18 596 21 441 19 446
25679 -7.0909638211275174 2.900474993000028 14.849507268619668 129 122 76 0.67379943924892349 11 3717 16 2923 15 1774 17 1647 18 592
25680 -8.4020610370499238 2.7516527128898631 14.389474686526043 9 1 0 0.8658264913002216 11 3729 12 3882 16 2933
25681 -8.125677823322107 2.2102566124478056 14.466120875131107 100 98 47 0.8968681128962317 11 6410 12 8619 16 2976 15 1921
25682 19.232954216930047 -17.124752485584253 54.03469296322541 9 13 10 0.59227750338187257 14 7344 16 2977 15 2197
25683 -0.5082374728855823 1.0488781443226796 9.2941529980624633 93 89 88 1.579907100567548 16 2984 15 756 17 524 21 609
25685 -8.0985766559200609 1.5159708340219546 14.86543258773955 124 115 61 0.85558952947596523 12 3989 16 3020 15 1527 17 1434
25686 -8.0820586932300706 1.520561003055577 14.841069067865185 124 115 61 0.59331541693791379 11 5073 12 3990 16 3021
25687 2.3658261998112824 1.1954414983860491 13.154146027833974 4 6 1 1.6458835756443395 11 7938 16 3026 15 944
25688 -7.7746615476052146 1.323368621123663 15.862587999139267 51 38 5 1.89202082793495 11 3878 16 3030 15 2619 18 573
25689 -0.27271813491323582 2.4899739486371764 9.4373103823704731 67 66 54 0.74322495675112377 14 8974 16 3053
25690 -0.029614435179270898 0.021669350809098081 25.651371407509078 57 66 47 1.9841807351411542 12 5378 16 3082 14 8037 13 8145 15 1853 17 1339 20 430 23 218 24 261
25691 17.472148345154533 -16.096161413148483 42.43835590131841 91 86 55 0.68598470108754839 11 3195 16 3166 15 2730
25692 1.7358786996181457 -0.74722945707483779 14.913208565519099 2 4 1 0.87582988780825932 11 7286 16 3193 15 1362
25693 -5.017850084713757 3.2243904279853943 10.400786771935875 146 134 112 0.66907945999613638 11 8756 16 3196
25694 2.121006673374537 -1.1099012681156404 12.718580954936579 2 4 0 0.90272624032121651 11 6830 16 3242 15 1301
25697 0.32467762395957622 3.1775038427959346 11.2059748326799 63 59 49 1.0016466879572015 11 8754 16 3274
25699 -36.069795471282049 -23.749317825272403 72.039361836891985 14 37 21 1.5815414222970532 4 3409 16 3309 1 3398
25701 -7.0129158524351096 3.1310828916407543 17.694258136421706 138 124 76 1.024191336366264 11 3762 16 3342 15 1906 17 1738 18 829 21 880 22 336
25702 -8.5531623538176724 2.448530143702524 14.160407483315504 10 0 1 1.2288809061528245 11 3763 16 3372 15 1898 17 1725
25703 -4.461799861149971 3.6021950668410496 14.937963309571995 74 67 51 1.0412601746134191 11 8483 12 8512 16 3376 15 2498 18 424
25704 -0.37465362132076779 0.38005893071937996 9.2509791439546269 48 30 18 2.4350642148454442 11 3920 22 442
25705 -7.7491644537607014 1.9823585442725096 15.235338532753076 145 135 74 0.68537336985179997 12 8138 16 3398 15 1964 17 1462 18 665
25707 17.352131650564331 -16.242144895384147 49.58222756854552 79 87 114 0.1119543357082155 12 6947 16 3420 15 4669
25708 -1.6405169824151864 3.0475584441637444 9.1007645319054635 107 99 86 0.8204986892345234 11 6067 16 3431
25709 -5.6820703453589196 2.9034147562308039 10.293337379132605 97 87 25 0.21476158315916308 11 8659 16 3528 15 1826
25710 -5.0939063356583665 3.3410283891023989 11.730863795293386 165 150 129 1.185124558105602 11 8641 16 3543 15 1167 17 1624
25711 -4.8581997451244296 3.4266913324549497 12.961243312473576 129 111 91 1.3638509993255017 11 3620 16 3559 15 2988
25712 -6.6805159152260662 3.3896199669215181 13.174786486801011 146 134 81 0.45448437144769838 11 6236 16 3576 15 2487 17 1674
25713 -6.1637085162910248 3.4351199525080411 13.464914095849362 184 173 93 0.56083731436671025 11 8535 16 3579
25714 2.378942941163313 2.6825290204614705 14.592613161612217 0 2 0 0.63069108830357046 11 6299 16 3630 15 1782
25715 -7.6658156562290998 2.8534826800451518 14.598002054267239 101 95 56 0.32853169765719803 11 6326 12 6388 16 3639 15 2531 17 2362
25717 -5.4905129086869042 4.0177248128416574 19.697388220226848 102 95 78 1.106865874838038 11 6314 12 6378 16 3645 17 2854 18 946 21 675 22 692 20 728
25718 -8.0728584235053695 2.746388814467017 14.553811471233395 108 105 58 0.54980391062084222 11 3730 12 6397 16 3649
25719 -8.3156145175659013 2.4665592460396075 13.9832829792641 84 76 36 0.97032876722364303 11 8236 16 3660 15 3069
25720 -9.0951039571859731 2.5078430451232148 14.152406274712037 80 76 44 0.64129042472937159 11 3757 16 3661 15 3073 17 2380
25721 -7.630650820230171 2.5750759296417098 14.671180325739908 13 4 0 0.21990367643372932 11 6363 12 6419 16 3664 15 3076
25722 -2.5664402269225315 1.5568404572859995 10.676523290855325 117 100 79 0.58769797849111227 11 6385 16 3666
25723 -7.1160028093330476 2.7913410525257372 16.208779072562415 8 2 2 2.1036837636335473 11 6373 16 3668 15 2550 17 2388 18 831 21 807 19 835 22 889 20 790
25724 -9.1501915304567714 2.2317027132128477 13.902491591462441 105 99 63 0.11926669105274013 11 9144 16 3675 15 3096
25725 -8.0897393068469228 2.3640561898547361 14.66479722480274 5 0 0 0.4299591730246784 11 6391 16 3681 15 3873
25726 -8.0897393068469228 2.3640561898547361 14.66479722480274 5 0 0 0.4299591730246784 11 8165 16 3682 15 3101
25728 -7.1759452450733594 2.4502691327763753 15.597422923312621 14 9 0 0.30886290703462393 11 6403 16 3693 18 755 21 803
25729 -7.2271399919271468 2.4561148865442499 15.907106503903444 113 109 74 0.85860725096889534 11 6408 16 3699 17 2401 18 752 21 801
25730 -7.2196611604889451 2.4575862028931814 15.897513086548404 113 109 74 0.57261170980998499 11 6409 16 3700 17 2402 18 751
25731 -8.161189411297963 2.174568470319457 14.381753369119197 8 2 0 0.3928869480646543 11 6418 16 3701 15 2562 17 1426
25732 -7.6486840752602054 2.2237494760183094 14.68240404713781 141 129 77 0.41829850052791917 11 6416 12 6447 16 3703 15 2564 17 1445
25733 -7.5089979216260936 2.2987865173670108 15.19016857989528 7 1 0 0.39231364947897313 11 6415 16 3707 15 1542 17 1482 18 845
25734 -7.245310512855565 2.381855505419606 15.971610244392208 5 2 0 0.6709417464064934 11 6427 12 6456 16 3710 15 1938 17 1768 18 849 21 902
25735 -7.245310512855565 2.381855505419606 15.971610244392208 5 2 0 0.6709417464064934 11 6426 12 6455 16 3711 15 2572 17 2409 18 746 21 799
25736 -8.8502191523985108 2.063227246549634 14.263863860360699 135 126 73 0.22917671021923847 11 9410 16 3712 15 2570
25737 -4.8621908168687558 4.4734613629949473 28.991725491284342 151 138 122 1.4383904368820752 13 6607 14 6622 16 3720 15 2585 17 2416 18 646 21 610 12 6453
25738 -8.9904424633556985 3.5109657870299249 24.400076714415274 56 46 10 0.70328944635946788 11 6438 12 6477 16 3732 14 6637 20 342 28 370
25739 2.4218466910277581 1.5659641219615799 13.465213460395491 2 2 0 0.60326883790881269 11 8050 16 3744 15 1535
25740 -8.7185969530746021 1.7974978302445597 14.432258116172168 17 5 0 0.45095293327090963 11 8029 16 3745 15 3944 17 1791
25741 -8.6928876983570973 1.6794333372111696 14.660569458019681 115 111 62 0.46056363443315212 11 7988 12 6520 16 3755
25742 -7.9934420951123686 1.676184645552399 14.861641467865155 43 32 0 0.70815853882951252 11 6472 16 3757 17 2430
25743 -8.8962248611102535 1.628505382755443 14.990258298346086 25 15 5 0.82014578222072265 11 6479 12 6530 16 3760
25744 -8.9003277508102485 1.435070607330867 15.104773966439343 14 7 0 0.52605795999684402 11 6496 16 3776 15 3182
25746 2.3809258702391567 0.052242245727127636 11.681912326380376 76 81 42 0.5872459329611972 11 6654 16 3913
25747 1.5944662461248988 -0.26814833699265761 15.846378697550298 1 7 0 0.6614288375554418 11 7427 16 3923 15 2682
25748 1.2452980351958418 -0.42047393566485475 17.499350342932228 64 71 53 0.79885181255111792 11 6694 16 3924 18 645
25749 -0.27423079099659342 -3.4354477358945319 56.514207404440569 88 130 120 1.6824901741669238 11 7332 12 7416 16 3929 15 4390 17 3131 18 677 21 715 19 731 13 6081
25753 17.295977932689912 -16.371719516443921 42.454236791904471 7 0 0 1.0237556761000348 11 4131 16 4011 15 2733
25754 -19.354202744339155 -26.941909341706847 49.504947540259977 0 0 0 0.44311355043438583 11 4139 13 7475
25755 -6.8373188724025171 2.5803561708528595 16.961487620601854 101 89 44 1.272751843773424 11 6420 16 4022 18 747 21 899 22 966 24 1016
25757 -1.6405169824151864 3.0475584441637444 9.1007645319054635 107 99 86 0.8204986892345234 11 8933 16 4066
25758 1.1181813878973745 3.0474675666994084 10.247141439670518 68 67 63 0.48697326481714331 11 6106 16 4177
25759 -1.3049701350552469 3.2411094580569593 11.104913638964499 73 63 51 1.7920494805603369 11 8750 16 4276 15 1729
25760 -0.28846370012277422 2.2603073655280608 9.2683398744809189 5 9 20 1.6693739400509329 11 8667 16 4283
25761 -5.6820703453589196 2.9034147562308039 10.293337379132605 97 87 25 0.21476158315916308 11 6187 16 4324 15 1708
25762 -5.0534064976714141 3.2614117728677612 11.159226979680898 123 111 87 0.81043806139220498 12 8681 16 4326 15 1703 17 731
25763 -5.7538806221774852 2.8752726266802267 10.235691147783397 25 12 4 0.93519622774147304 12 4706 16 4327 15 2428
25764 -5.6143293526107323 3.1559957950727369 11.159257469615019 33 16 3 1.3220248475687928 11 3602 16 4349 15 828 17 738
25765 -1.3720590951955201 3.3139699504344962 12.329584963355243 105 97 87 0.58731410521505123 11 6196 16 4370 15 1679 17 745
25766 2.4088686757936593 3.6172218905154976 14.201082937554707 56 49 39 1.3772785613679515 11 6203 16 4394 15 1299
25767 -5.629376009406525 3.4137700705098264 12.795701791404843 171 155 129 0.50745669951756545 11 8565 16 4418 15 1658
25768 -4.622852116661381 3.4790747969565738 13.255424550682989 118 103 80 0.83103094849831471 11 8560 12 8587 16 4428 15 1649 17 1594
25769 -6.2587711736434821 3.3754124871206836 12.940772362903136 90 69 17 0.55798279546936924 11 8550 16 4435 15 3625 17 3373
25770 -5.8100242324905436 3.4679847997431659 13.275489381950457 154 138 104 1.2463317920999928 11 4655 12 8576 16 4438 15 1646 17 1587
25771 -6.6805159152260662 3.3896199669215181 13.174786486801011 146 134 81 0.45448437144769838 11 8539 16 4457 15 2301 17 1582
25772 -1.3501326934178706 2.7960152168293999 12.371878277488996 29 22 12 1.4395906882163396 11 8507 15 2302 17 1589
25773 -5.1135016520417631 3.5208983660455817 13.761911532251643 115 98 72 0.52120501148779053 11 6234 16 4462 15 2850 17 1579
25774 -7.2609721870215651 3.3582349911243599 13.162254850898277 70 66 39 1.015444308313298 11 9433 16 4468 15 3643 17 3394
25775 -6.2563848642101521 3.411640529454099 13.481155063143069 75 58 11 0.8120842131188426 11 6240 16 4472 15 1635 17 1575
25776 -6.6918243305275809 3.3545454722458294 13.332655598192861 138 127 59 0.58033221545311953 11 8513 16 4476 15 2293 17 2464
25777 -5.0842641558878103 3.573088583192197 14.279723447257707 162 142 113 1.0114150634852459 12 8544 16 4484 11 8519 15 1632 17 1571 18 774
25778 -4.7961046617676253 3.5009149586931194 14.158680130487802 114 94 67 0.88434328033476295 11 8510 16 4488 18 421
25779 -5.5456697825610233 3.6477793434317327 14.750002467810962 131 114 84 1.6320684981162259 11 8496 16 4493 15 2279 17 1983 18 2409
25780 -6.4693813591160945 3.5145373522074421 14.41944070517077 47 33 0 1.5846008254246096 11 8478 16 4500 15 2273 17 2178 18 778
25781 -7.0817021479075599 3.3262380458453098 13.898837205452283 79 74 45 0.50705662957310216 11 8468 16 4503 15 2269
25782 -1.4748744194142551 3.373395797553191 14.767555631728731 32 23 14 0.064138100034511702 12 8504 16 4512
25783 -2.6284525081840755 3.7213358131983405 15.9996814004858 83 71 55 1.9130879804934944 12 8497 16 4527 15 2256 18 781
25784 2.4571598536271502 2.8293070126892355 14.129820184586446 44 54 20 1.4872998505554358 11 8434 16 4542 15 3695
25785 -8.1323544424802936 3.2922983324270296 14.494359199643663 9 1 2 0.34833823124532642 11 8410 16 4550 15 2246 17 2133
25786 -6.9292089753503818 3.2664071312367735 14.513613220092434 115 105 54 1.2878349143048524 11 8409 16 4553 17 1550 18 797
25787 -5.3162711901888278 3.8264604031533231 16.620788270012202 128 113 91 1.1466264868190452 12 6340 16 4555 15 3730 18 795 21 835
25788 -5.1000892003324099 3.7549493695419174 16.643371232098893 125 108 88 0.33710402564951641 11 8411 16 4561 15 3738
25789 -5.3742161755223803 3.8572465455133771 17.068405509261186 162 146 123 1.3563210344523444 11 8405 16 4569 15 2211 18 799 21 459
25790 -8.231455123832994 3.1400593168195257 14.436475478599233 82 76 44 0.41022259402497135 11 8383 16 4571 17 2117
25791 -6.6483958483061905 3.7966070754117891 17.090800277610715 166 149 123 1.737978030948687 11 8388 12 8429 16 4581 15 2159 18 801 21 461
25792 -6.7253080548160149 3.5877687075207545 16.29376895880144 37 12 3 1.8684147835869664 12 6354 16 4582 18 802 21 462 22 453 19 463
25793 -8.1350973656412684 3.074752176246045 14.4263412308156 7 3 0 0.44017118258169974 11 8371 16 4584 15 2189 17 2114
25794 1.7249824070284463 3.8408134251964494 18.472682560350073 12 9 2 1.2734833473876717 11 6290 16 4586
25795 -8.0897512009113299 3.0875333518139776 14.767901642264663 72 69 24 0.51729106149013093 11 4820 16 4595 15 3763 17 3519
25796 -4.9841766695725527 3.7349639415175289 17.572625079077309 94 84 72 1.5932020879938398 11 8368 16 4596 15 5002 17 2096 14 8755
25797 -6.891611966189318 3.1267573559241106 15.027283551759851 45 39 3 1.6960590081117737 11 4819 12 8391 16 4597 21 465
25798 -4.7697480280896292 3.6706839168267331 17.233805111890664 155 154 152 1.3757234990619831 12 8403 16 4598 17 2099 21 463 22 332
25799 2.378942941163313 2.6825290204614705 14.592613161612217 0 2 0 0.63069108830357046 11 8361 16 4600 15 1596
25800 2.1363912992519323 3.0496958031414292 16.041231608482704 47 51 36 0.77429103113245834 11 6300 16 4605 15 2526
25801 -7.1895190494749093 2.9997064330867076 14.796213919059676 31 23 4 1.1094489246955066 11 8340 16 4606 15 1992 17 3532
25802 -7.6440459370915468 2.9554249926481129 14.753835346341338 84 82 33 0.437202653580126 11 8325 12 8363 16 4611 15 1972 17 2095
25803 -3.7056101717438485 3.9868962717869199 19.114122241628365 117 102 81 2.0180447756879851 11 8346 12 8392 16 4613 15 1876 17 2364 18 809 21 467 20 506 19 466 22 503
25804 -7.6169386219644792 2.8019808673868836 14.240272851810026 117 113 68 0.46929535218164448 11 4846 12 6384 16 4614
25805 -7.0874734842960398 3.2965980250156504 16.299591472517328 111 102 71 0.97311027196498812 11 8326 12 8364 16 4618 15 2398 17 2088 18 811 21 469 19 467 22 504 20 511
25806 -7.6658156562290998 2.8534826800451518 14.598002054267239 101 95 56 0.32853169765719803 11 8305 16 4620 12 8345 15 1943 17 2090
25807 -5.0914632921600731 3.8046706294784318 18.678538678170053 156 155 151 1.6552653218522668 12 8381 16 4626 17 1984 14 8721 18 812 19 469
25809 -7.5192772999202431 2.8600798098876781 14.839596423021815 122 117 75 0.45468327677027093 11 8297 12 8336 16 4630 15 3796 17 3559 18 1872
25811 -5.4905129086869113 4.0177248128416627 19.697388220226873 102 95 78 1.1068658748380833 11 8327 12 8366 16 4634 18 1111 17 3567 21 682 22 506 20 510
25812 -7.2055610294762884 2.7874750030871263 15.048243397379522 89 82 52 0.52610406681082766 11 8277 12 9435 16 4654 15 1887 17 1517 18 818
25813 -7.3487177175526934 2.6065015336877719 14.555075005857486 126 118 81 0.50458182445441069 11 8248 16 4663 15 3817 17 1776 18 823
25814 -8.3156145175659013 2.4665592460396075 13.9832829792641 84 76 36 0.97032876722364303 11 6361 16 4666 15 3818
25815 -9.0951039571859731 2.5078430451232148 14.152406274712037 80 76 44 0.64129042472937159 11 4911 16 4667 15 3825 17 2231
25816 2.2316960417600749 2.4166114126934701 14.858231879437515 54 58 31 0.29106546965090668 11 8270 16 4668 15 1886
25817 -7.2127505079824497 3.2140731167084153 17.513411037547705 10 0 0 1.3404728587893497 11 8249 16 4672 15 1902 17 1732 18 1848 21 872 19 890 22 934 20 522 23 523
25818 -7.630650820230171 2.5750759296417098 14.671180325739908 13 4 0 0.21990367643372932 11 8232 12 8293 16 4673 15 3835
25819 2.3427415368169839 2.1536414685849485 14.081507741309959 51 58 43 0.78561855096491151 11 8224 16 4681 15 1895
25820 -7.1065522853311922 2.7858760502399051 16.188962082036802 8 2 2 1.7440533296021909 11 8208 12 8280 16 4684 15 2551 18 761 21 883 19 900 22 944 20 793
25821 -7.7765429742072607 2.4627315582132678 14.621994597488515 136 129 75 0.44120618512280263 11 8197 16 4685 15 3852
25822 -7.0662881588246611 3.1453756153595869 18.021370481949216 52 37 8 1.2831915375973069 11 8210 16 4691 15 1912 21 884 19 898 20 525 23 924
25823 -6.8423856675019739 2.7612469303338361 16.489664422820777 97 89 49 0.65775682090733545 11 3776 12 6429 16 4701 18 833 21 481 19 645 14 6607 22 351
25824 -9.1735754307768929 2.2365564515492138 13.928558076134925 105 99 63 0.33117831764535405 11 9391 16 4702 15 3868 17 1740
25825 -6.0716646900697961 4.0031006427301321 22.899917754797706 126 111 89 1.0956666316308006 10 8535 13 8434 16 4715 15 7261
25826 -7.2804780370969997 2.3880422968198247 15.226925152992209 5 0 0 0.63371246935445835 11 8148 12 8231 16 4724 15 2560 17 2397 18 838
25827 -7.1723110960226641 2.4468354504189653 15.589597261554243 14 9 0 0.59413060375063742 11 8149 16 4726 15 1545 17 1486 18 840 21 893
25829 -7.2271399919271468 2.4561148865442499 15.907106503903444 113 109 74 0.85860725096889534 11 8138 16 4735 17 1754 18 843 21 895
25830 -8.161189411297963 2.174568470319457 14.381753369119197 8 2 0 0.3928869480646543 11 8126 16 4736 15 1922 17 1484
25831 -7.6486840752602054 2.2237494760183094 14.68240404713781 141 129 77 0.41829850052791917 11 8127 12 8217 16 4737 15 2565 17 1428
25832 -7.1526812504557009 2.8603942531847526 18.184023438217718 135 121 80 0.53671072266538955 11 8139 16 4743 15 3121 17 2903 18 844 21 896 19 714 22 525 20 537 23 539 24 567 25 541 26 548
25833 -7.5089979216260936 2.2987865173670108 15.19016857989528 7 1 0 0.39231364947897313 11 8128 16 4744 15 1747 17 1410 18 749
25834 2.0651550814010387 2.0568142360072836 14.709410671862265 58 63 43 0.96148331738084269 11 8146 16 4745 15 3109
25835 -8.0864297059063759 2.1214504671055501 14.494504372920121 120 110 61 0.52609632720605437 11 8109 12 8197 16 4749 15 1932 17 1760
25836 -7.246938915135849 2.3837539251045685 15.974987143419527 5 2 0 0.6715708386459599 11 8117 12 8206 16 4753 15 2571 17 2410 18 745 21 798 19 924
25837 -8.867533357822909 2.0659027084026795 14.284524765574727 135 126 73 0.35657705270855466 11 5891 16 4759 15 1937 17 1764
25838 -8.8245151923120275 2.0570952531869859 14.424881174592517 20 7 0 0.2202786451853013 11 8098 16 4764 15 1940 17 1770
25839 -7.5042069737602635 2.1318895756681906 14.942430300828944 18 8 0 0.3369886763969388 11 8101 16 4768 15 3915
25840 -7.1587862851855695 2.3279883206074974 16.251067592250383 113 105 61 0.46202407313929034 12 8185 16 4773 18 851
25841 -5.2168875885172685 4.8626309281573432 31.213973339603537 151 138 122 1.1728536780915553 13 8370 14 8560 16 4775 15 1959 17 1786 18 653 21 487 20 488 26 297
25842 -7.4373935590273401 2.0901947025602658 15.104586004978129 26 12 0 2.0448440205373464 11 8094 16 4779 15 1948 17 1715 18 854
25844 -8.2940169647004804 1.9196579290339217 14.347044701763078 144 134 81 0.2327475155193556 11 8067 12 8150 16 4788 15 1950 17 1469
25845 -9.2459576406729518 3.6147287069073357 25.057242593492496 56 46 10 1.1072518039306658 11 8079 12 8172 14 8518 16 4799 15 1973 20 486
25846 -7.2061131219647123 1.9608481191476224 15.409394403175867 109 97 47 1.002893270631656 11 8043 16 4815 15 1974 17 1793 18 862 21 913
25847 2.4218466910277581 1.5659641219615799 13.465213460395491 2 2 0 0.60326883790881269 11 6450 16 4817 15 1743
25848 -8.7185969530746021 1.7974978302445597 14.432258116172168 17 5 0 0.45095293327090963 11 6456 16 4819 15 3136 17 2419
25849 -6.9456571718292253 2.0042618006679667 15.980890012055143 120 113 71 0.943964320464456 11 8032 16 4824 18 864 21 494 19 502 22 543
25850 -8.6197627579682354 1.8008873970953094 14.737048840953062 114 103 57 0.41916749100765455 11 8019 16 4828 15 1978
25851 -7.9044259152878311 1.8701380436653403 15.210701483742364 92 85 46 1.0830090090106701 12 8108 16 4832 17 1454
25852 2.2468642555575444 1.5029126191810889 13.721830048854589 77 82 50 0.5909981390918726 11 8016 16 4846 15 1522
